ply
format ascii 1.0
comment PCL generated
element vertex 1034
property float x
property float y
property float z
property uchar red
property uchar green
property uchar blue
element camera 0
property float view_px
property float view_py
property float view_pz
property float x_axisx
property float x_axisy
property float x_axisz
property float y_axisx
property float y_axisy
property float y_axisz
property float z_axisx
property float z_axisy
property float z_axisz
property float focal
property float scalex
property float scaley
property float centerx
property float centery
property int viewportx
property int viewporty
property float k1
property float k2
end_header
-0.032167997 -0.079665892 0.48900002 172 14 25
-0.031624451 -0.079665892 0.48900002 174 16 27
-0.0310809 -0.079665892 0.48900002 175 20 30
-0.030474901 -0.079502977 0.48800004 178 25 34
-0.029932464 -0.079502977 0.48800004 178 25 34
-0.029390028 -0.079502977 0.48800004 179 26 35
-0.02884759 -0.079502977 0.48800004 180 27 36
-0.028305152 -0.079502977 0.48800004 179 29 37
-0.027762715 -0.079502977 0.48800004 182 32 40
-0.027164496 -0.079340063 0.48700002 180 36 45
-0.026623171 -0.079340063 0.48700002 180 36 45
-0.026081845 -0.079340063 0.48700002 179 40 49
-0.02554052 -0.079340063 0.48700002 180 41 50
-0.024999194 -0.079340063 0.48700002 178 42 50
-0.024457866 -0.079340063 0.48700002 181 45 53
-0.023916539 -0.079340063 0.48700002 185 50 60
-0.023375213 -0.079340063 0.48700002 183 48 58
-0.022833887 -0.079340063 0.48700002 178 47 58
-0.022292562 -0.079340063 0.48700002 187 56 67
-0.021751236 -0.079340063 0.48700002 190 64 78
-0.021209911 -0.079340063 0.48700002 192 66 80
-0.020668585 -0.079340063 0.48700002 190 63 82
-0.020127259 -0.079340063 0.48700002 181 54 73
-0.01850328 -0.079340063 0.48700002 175 43 61
-0.017961955 -0.079340063 0.48700002 177 45 63
-0.017456399 -0.079502977 0.48800004 176 43 57
-0.016913962 -0.079502977 0.48800004 174 41 55
-0.016371524 -0.079502977 0.48800004 173 38 48
-0.015829086 -0.079502977 0.48800004 170 35 45
-0.015286649 -0.079502977 0.48800004 168 32 40
-0.014744212 -0.079502977 0.48800004 167 31 39
-0.014201774 -0.079502977 0.48800004 173 31 39
-0.013659337 -0.079502977 0.48800004 172 30 38
-0.013143778 -0.079665892 0.48900002 173 31 39
-0.012600228 -0.079665892 0.48900002 180 38 46
-0.012056679 -0.079665892 0.48900002 171 29 37
-0.01151313 -0.079665892 0.48900002 167 25 33
-0.010969581 -0.079665892 0.48900002 166 24 32
-0.010426031 -0.079665892 0.48900002 167 21 28
-0.0099026924 -0.079828806 0.49000001 164 18 25
-0.0093580317 -0.079828806 0.49000001 163 16 21
-0.008813371 -0.079828806 0.49000001 161 14 19
-0.0082687093 -0.079828806 0.49000001 162 9 16
-0.007724049 -0.079828806 0.49000001 162 9 16
-0.0071793883 -0.079828806 0.49000001 163 8 16
-0.0066347276 -0.079828806 0.49000001 165 10 18
-0.0061024963 -0.079991728 0.49100003 166 11 19
-0.0055567236 -0.079991728 0.49100003 167 12 20
-0.0050109513 -0.079991728 0.49100003 166 11 19
-0.0044651795 -0.079991728 0.49100003 166 11 19
-0.0039194068 -0.079991728 0.49100003 165 10 18
-0.0033805054 -0.080154642 0.49200001 163 8 16
-0.0028336218 -0.080154642 0.49200001 165 10 18
-0.002286738 -0.080154642 0.49200001 166 11 19
-0.0017398541 -0.080154642 0.49200001 166 13 20
-0.0011953951 -0.080317557 0.49300003 160 7 14
-0.00064739975 -0.080317557 0.49300003 157 7 13
-9.9404431e-05 -0.080317557 0.49300003 156 6 12
0.00044950086 -0.080480471 0.49400002 157 7 13
0.0010006293 -0.080643393 0.49500003 156 6 12
0.0015508478 -0.080643393 0.49500003 153 6 13
0.0021053108 -0.080806307 0.49600002 151 4 11
0.0026566407 -0.080806307 0.49600002 148 4 13
0.0032144384 -0.080969222 0.49700001 150 6 15
0.0037744592 -0.081132136 0.49800003 145 9 17
0.0043453937 -0.081457965 0.5 145 9 17
0.0049109724 -0.081620887 0.50100005 136 15 25
0.0054896884 -0.081946716 0.50300002 138 17 27
0.020125408 -0.08471629 0.52000004 69 68 68
0.020703414 -0.08471629 0.52000004 69 68 68
0.023457333 -0.08422754 0.51700002 73 65 64
0.024032006 -0.08422754 0.51700002 63 55 54
0.024559084 -0.084064625 0.51600003 45 37 36
0.025132645 -0.084064625 0.51600003 40 32 31
0.026697204 -0.083575875 0.51300001 26 18 17
0.027161125 -0.083250046 0.51100004 40 16 20
0.027674865 -0.083087131 0.51000005 48 24 28
0.028639186 -0.082598381 0.50700003 70 34 38
0.029145144 -0.082435466 0.50600004 76 33 39
0.029648876 -0.082272545 0.505 74 31 37
0.030150387 -0.08210963 0.50400001 72 36 40
0.030649677 -0.081946716 0.50300002 73 37 41
0.031208789 -0.081946716 0.50300002 77 51 51
0.031767901 -0.081946716 0.50300002 81 55 55
0.032327011 -0.081946716 0.50300002 87 47 48
0.032886121 -0.081946716 0.50300002 82 42 43
0.033445232 -0.081946716 0.50300002 112 15 24
0.034071945 -0.08210963 0.50400001 112 15 24
0.034632169 -0.08210963 0.50400001 140 5 19
0.035192389 -0.08210963 0.50400001 141 6 20
0.03582355 -0.082272545 0.505 149 1 16
0.036384884 -0.082272545 0.505 149 1 16
0.036873057 -0.08210963 0.50400001 153 2 15
0.037993502 -0.08210963 0.50400001 157 3 15
0.038477231 -0.081946716 0.50300002 157 3 15
0.038958736 -0.081783801 0.50200003 158 4 16
0.039516732 -0.081783801 0.50200003 159 3 16
0.039994903 -0.081620887 0.50100005 160 4 17
0.040551793 -0.081620887 0.50100005 162 3 17
0.041026622 -0.081457965 0.5 165 6 20
0.041582398 -0.081457965 0.5 168 9 23
0.042138174 -0.081457965 0.5 171 12 26
0.042608563 -0.081295051 0.49900001 170 11 25
0.043163229 -0.081295051 0.49900001 169 10 24
0.043717891 -0.081295051 0.49900001 168 9 23
0.044272557 -0.081295051 0.49900001 168 9 23
0.044827223 -0.081295051 0.49900001 166 6 20
0.045381889 -0.081295051 0.49900001 166 6 20
0.045936555 -0.081295051 0.49900001 168 5 20
0.046491221 -0.081295051 0.49900001 170 7 22
0.046951603 -0.081132136 0.49800003 172 7 20
0.047505159 -0.081132136 0.49800003 174 7 21
0.048058711 -0.081132136 0.49800003 173 6 20
0.048612263 -0.081132136 0.49800003 173 6 18
0.049165815 -0.081132136 0.49800003 174 7 19
0.049719371 -0.081132136 0.49800003 176 9 21
0.050272923 -0.081132136 0.49800003 177 10 22
0.050724413 -0.080969222 0.49700001 177 10 22
0.051276855 -0.080969222 0.49700001 176 9 21
0.051829293 -0.080969222 0.49700001 176 6 19
0.052381735 -0.080969222 0.49700001 177 7 20
0.052934177 -0.080969222 0.49700001 177 10 22
0.053486619 -0.080969222 0.49700001 180 13 25
0.054039061 -0.080969222 0.49700001 182 15 27
0.054701347 -0.081132136 0.49800003 178 11 23
0.055254899 -0.081132136 0.49800003 177 12 23
0.055808451 -0.081132136 0.49800003 177 12 23
0.056362003 -0.081132136 0.49800003 177 15 27
0.056915559 -0.081132136 0.49800003 178 16 28
0.057584509 -0.081295051 0.49900001 174 19 29
0.058139175 -0.081295051 0.49900001 174 19 29
0.058693837 -0.081295051 0.49900001 167 20 27
0.059367236 -0.081457965 0.5 167 20 27
0.059923012 -0.081457965 0.5 160 26 31
0.060599755 -0.081620887 0.50100005 162 28 33
0.061156642 -0.081620887 0.50100005 158 34 38
0.061836708 -0.081783801 0.50200003 161 37 41
0.062394708 -0.081783801 0.50200003 162 46 50
0.062952705 -0.081783801 0.50200003 162 46 50
0.063637219 -0.081946716 0.50300002 152 42 53
0.064196333 -0.081946716 0.50300002 152 42 53
-0.053851746 -0.082358427 0.509 101 32 43
-0.053181279 -0.082196623 0.50800002 98 29 40
-0.052409463 -0.081873022 0.50600004 105 23 31
-0.051847018 -0.081873022 0.50600004 105 23 31
-0.050521642 -0.081549406 0.50400001 115 14 26
-0.049862288 -0.081387609 0.50300002 115 14 26
-0.049205162 -0.081225805 0.50200003 122 12 23
-0.048550256 -0.081064001 0.50100005 122 12 23
-0.04789757 -0.080902189 0.5 127 10 23
-0.047341794 -0.080902189 0.5 128 11 24
-0.046692446 -0.080740385 0.49900001 133 10 20
-0.046045322 -0.080578588 0.49800003 131 8 18
-0.04549177 -0.080578588 0.49800003 132 7 16
-0.044938218 -0.080578588 0.49800003 134 9 18
-0.044295538 -0.080416776 0.49700001 140 7 17
-0.043743093 -0.080416776 0.49700001 140 7 17
-0.043103747 -0.080254972 0.49600002 141 7 14
-0.042552419 -0.080254972 0.49600002 141 7 14
-0.042001087 -0.080254972 0.49600002 147 6 11
-0.041366193 -0.080093175 0.49500003 152 6 13
-0.040815976 -0.080093175 0.49500003 153 7 14
-0.040184408 -0.079931363 0.49400002 156 9 14
-0.039555069 -0.079769567 0.49300003 157 10 15
-0.039007075 -0.079769567 0.49300003 157 10 15
-0.038381066 -0.079607755 0.49200001 156 9 14
-0.037834182 -0.079607755 0.49200001 157 7 13
-0.037211515 -0.079445951 0.49100003 156 6 12
-0.036665741 -0.079445951 0.49100003 158 5 12
-0.036046404 -0.079284146 0.49000001 164 11 18
-0.035501745 -0.079284146 0.49000001 172 17 25
-0.034957085 -0.079284146 0.49000001 167 12 20
-0.034412421 -0.079284146 0.49000001 167 12 20
-0.033867761 -0.079284146 0.49000001 167 12 20
-0.033255097 -0.079122342 0.48900002 167 12 22
-0.032711547 -0.079122342 0.48900002 169 14 24
-0.032167997 -0.079122342 0.48900002 172 17 27
-0.031624451 -0.079122342 0.48900002 174 19 29
-0.0310809 -0.079122342 0.48900002 174 21 30
-0.030474901 -0.078960545 0.48800004 178 28 36
-0.029932464 -0.078960545 0.48800004 178 28 36
-0.029390028 -0.078960545 0.48800004 175 28 35
-0.02884759 -0.078960545 0.48800004 176 29 36
-0.028305152 -0.078960545 0.48800004 177 30 40
-0.027705822 -0.078798734 0.48700002 181 34 44
-0.027164496 -0.078798734 0.48700002 180 38 48
-0.026623171 -0.078798734 0.48700002 182 40 50
-0.026081845 -0.078798734 0.48700002 178 42 50
-0.02554052 -0.078798734 0.48700002 179 43 51
-0.024999194 -0.078798734 0.48700002 175 40 52
-0.024457866 -0.078798734 0.48700002 185 50 62
-0.023916539 -0.078798734 0.48700002 186 58 70
-0.023375213 -0.078798734 0.48700002 184 56 68
-0.022833887 -0.078798734 0.48700002 178 56 69
-0.022292562 -0.078798734 0.48700002 187 65 78
-0.021751236 -0.078798734 0.48700002 191 70 89
-0.021209911 -0.078798734 0.48700002 192 71 90
-0.01850328 -0.078798734 0.48700002 175 48 67
-0.017961955 -0.078798734 0.48700002 174 47 66
-0.017420627 -0.078798734 0.48700002 175 44 57
-0.016913962 -0.078960545 0.48800004 174 43 56
-0.016371524 -0.078960545 0.48800004 173 40 50
-0.015829086 -0.078960545 0.48800004 169 36 46
-0.015286649 -0.078960545 0.48800004 166 32 39
-0.014744212 -0.078960545 0.48800004 165 31 38
-0.014201774 -0.078960545 0.48800004 172 33 40
-0.013659337 -0.078960545 0.48800004 175 33 41
-0.013116899 -0.078960545 0.48800004 174 32 40
-0.012600228 -0.079122342 0.48900002 174 32 40
-0.012056679 -0.079122342 0.48900002 171 29 37
-0.01151313 -0.079122342 0.48900002 168 26 34
-0.010969581 -0.079122342 0.48900002 166 24 32
-0.010426031 -0.079122342 0.48900002 168 22 29
-0.0098824827 -0.079122342 0.48900002 164 18 25
-0.0093580317 -0.079284146 0.49000001 164 17 24
-0.008813371 -0.079284146 0.49000001 161 14 21
-0.0082687093 -0.079284146 0.49000001 165 12 19
-0.007724049 -0.079284146 0.49000001 164 11 18
-0.0071793883 -0.079284146 0.49000001 162 9 16
-0.0066347276 -0.079284146 0.49000001 164 11 18
-0.0061024963 -0.079445951 0.49100003 165 12 19
-0.0055567236 -0.079445951 0.49100003 166 13 20
-0.0050109513 -0.079445951 0.49100003 165 12 19
-0.0044651795 -0.079445951 0.49100003 164 11 18
-0.0039194068 -0.079445951 0.49100003 162 9 16
-0.0033805054 -0.079607755 0.49200001 164 11 18
-0.0028336218 -0.079607755 0.49200001 165 12 19
-0.002286738 -0.079607755 0.49200001 166 13 20
-0.0017398541 -0.079607755 0.49200001 165 12 19
-0.0011953951 -0.079769567 0.49300003 160 7 14
-0.00064739975 -0.079769567 0.49300003 158 5 12
-9.9404431e-05 -0.079769567 0.49300003 158 5 12
0.00044950086 -0.079931363 0.49400002 158 8 14
0.00099860772 -0.079931363 0.49400002 158 8 14
0.0015508478 -0.080093175 0.49500003 156 9 14
0.0021053108 -0.080254972 0.49600002 154 7 12
0.0026566407 -0.080254972 0.49600002 150 6 15
0.0032144384 -0.080416776 0.49700001 151 7 16
0.0037744592 -0.080578588 0.49800003 146 10 16
0.0043453937 -0.080902189 0.5 146 10 16
0.0049109724 -0.081064001 0.50100005 138 15 25
0.0054787747 -0.081225805 0.50200003 140 17 27
0.0060608243 -0.081549406 0.50400001 128 22 36
0.0066341832 -0.08171121 0.505 128 22 36
0.018969391 -0.084138282 0.52000004 74 73 73
0.019547399 -0.084138282 0.52000004 72 71 71
0.020125408 -0.084138282 0.52000004 68 67 67
0.020703414 -0.084138282 0.52000004 67 66 66
0.022351136 -0.083814666 0.51800001 75 65 65
0.022926921 -0.083814666 0.51800001 67 57 57
0.023457333 -0.083652869 0.51700002 56 44 42
0.024032006 -0.083652869 0.51700002 36 24 22
0.026645161 -0.082843848 0.51200002 43 17 15
0.027107973 -0.082520239 0.51000005 94 51 53
0.028075628 -0.082034826 0.50700003 98 43 49
0.028582698 -0.081873022 0.50600004 106 51 57
0.029087542 -0.08171121 0.505 107 48 53
0.029590165 -0.081549406 0.50400001 98 39 44
0.030090567 -0.081387609 0.50300002 89 33 37
0.030649677 -0.081387609 0.50300002 93 37 41
0.031146744 -0.081225805 0.50200003 96 47 48
0.031704746 -0.081225805 0.50200003 99 50 51
0.032262743 -0.081225805 0.50200003 109 47 48
0.032820743 -0.081225805 0.50200003 99 37 38
0.033378743 -0.081225805 0.50200003 118 13 20
0.033936743 -0.081225805 0.50200003 117 12 19
0.034494743 -0.081225805 0.50200003 143 6 21
0.035052739 -0.081225805 0.50200003 151 3 15
0.035681676 -0.081387609 0.50300002 153 5 17
0.036240786 -0.081387609 0.50300002 158 2 15
0.036726739 -0.081225805 0.50200003 159 3 16
0.037767354 -0.081064001 0.50100005 162 4 15
0.038324241 -0.081064001 0.50100005 163 4 15
0.038881127 -0.081064001 0.50100005 164 5 16
0.039359294 -0.080902189 0.5 166 4 16
0.03991507 -0.080902189 0.5 166 4 16
0.040389907 -0.080740385 0.49900001 168 3 16
0.040944569 -0.080740385 0.49900001 169 4 17
0.041499235 -0.080740385 0.49900001 166 7 18
0.042053901 -0.080740385 0.49900001 171 12 23
0.042608563 -0.080740385 0.49900001 171 11 25
0.043163229 -0.080740385 0.49900001 170 10 24
0.043717891 -0.080740385 0.49900001 169 9 23
0.044272557 -0.080740385 0.49900001 168 8 22
0.044827223 -0.080740385 0.49900001 166 6 20
0.045381889 -0.080740385 0.49900001 168 8 22
0.045844499 -0.080578588 0.49800003 170 8 20
0.046398051 -0.080578588 0.49800003 170 8 20
0.046951603 -0.080578588 0.49800003 173 8 21
0.047505159 -0.080578588 0.49800003 174 7 21
0.048058711 -0.080578588 0.49800003 173 6 20
0.048612263 -0.080578588 0.49800003 173 6 18
0.049165815 -0.080578588 0.49800003 175 8 20
0.049619529 -0.080416776 0.49700001 175 8 20
0.050171971 -0.080416776 0.49700001 176 9 21
0.050724413 -0.080416776 0.49700001 175 8 20
0.051276855 -0.080416776 0.49700001 175 8 20
0.051829293 -0.080416776 0.49700001 176 6 19
0.052381735 -0.080416776 0.49700001 176 6 19
0.052934177 -0.080416776 0.49700001 177 7 20
0.053486619 -0.080416776 0.49700001 180 10 23
0.054039061 -0.080416776 0.49700001 180 13 25
0.054591503 -0.080416776 0.49700001 178 11 23
0.055143945 -0.080416776 0.49700001 177 12 23
0.055808451 -0.080578588 0.49800003 177 12 23
0.056362003 -0.080578588 0.49800003 174 12 24
0.056915559 -0.080578588 0.49800003 174 12 24
0.057469111 -0.080578588 0.49800003 173 14 25
0.058139175 -0.080740385 0.49900001 173 14 25
0.058693837 -0.080740385 0.49900001 166 16 24
0.059248503 -0.080740385 0.49900001 167 17 25
0.059923012 -0.080902189 0.5 164 22 30
0.060478792 -0.080902189 0.5 166 24 32
0.061156642 -0.081064001 0.50100005 156 32 36
0.061713532 -0.081064001 0.50100005 163 39 43
0.062270418 -0.081064001 0.50100005 168 52 56
0.062952705 -0.081225805 0.50200003 161 45 49
0.063637219 -0.081387609 0.50300002 157 45 56
0.064196333 -0.081387609 0.50300002 157 45 56
-0.053851746 -0.081792653 0.509 98 29 40
-0.053076595 -0.081471264 0.50700003 97 28 39
-0.052409463 -0.081310578 0.50600004 105 23 31
-0.051744547 -0.081149876 0.505 105 23 31
-0.051081862 -0.080989182 0.50400001 114 17 28
-0.050421402 -0.080828495 0.50300002 118 12 24
-0.049862288 -0.080828495 0.50300002 118 12 24
-0.049205162 -0.080667801 0.50200003 122 12 23
-0.048550256 -0.080507115 0.50100005 122 12 23
-0.04789757 -0.080346413 0.5 128 11 24
-0.047341794 -0.080346413 0.5 128 11 24
-0.046692446 -0.080185719 0.49900001 133 10 20
-0.046137784 -0.080185719 0.49900001 133 10 20
-0.04549177 -0.080025032 0.49800003 134 9 18
-0.044938218 -0.080025032 0.49800003 134 9 18
-0.044295538 -0.079864338 0.49700001 140 7 17
-0.043743093 -0.079864338 0.49700001 142 9 19
-0.043103747 -0.079703644 0.49600002 144 10 17
-0.042552419 -0.079703644 0.49600002 144 10 17
-0.042001087 -0.079703644 0.49600002 149 8 13
-0.041366193 -0.079542957 0.49500003 150 7 13
-0.040733516 -0.079382256 0.49400002 151 8 14
-0.040184408 -0.079382256 0.49400002 154 8 13
-0.039555069 -0.079221569 0.49300003 155 9 14
-0.039007075 -0.079221569 0.49300003 156 9 14
-0.038381066 -0.079060875 0.49200001 155 8 13
-0.037834182 -0.079060875 0.49200001 155 8 13
-0.037211515 -0.078900181 0.49100003 155 8 13
-0.036665741 -0.078900181 0.49100003 159 6 13
-0.036046404 -0.078739487 0.49000001 159 6 13
-0.035501745 -0.078739487 0.49000001 163 8 16
-0.034957085 -0.078739487 0.49000001 167 12 20
-0.034412421 -0.078739487 0.49000001 169 14 24
-0.033867761 -0.078739487 0.49000001 169 14 24
-0.033255097 -0.078578793 0.48900002 168 13 23
-0.032711547 -0.078578793 0.48900002 169 14 24
-0.032167997 -0.078578793 0.48900002 172 19 28
-0.031624451 -0.078578793 0.48900002 168 15 24
-0.031017341 -0.078418106 0.48800004 171 21 29
-0.030474901 -0.078418106 0.48800004 176 29 36
-0.029932464 -0.078418106 0.48800004 177 30 37
-0.029390028 -0.078418106 0.48800004 175 29 36
-0.02884759 -0.078418106 0.48800004 176 30 37
-0.028247148 -0.078257412 0.48700002 175 33 41
-0.027705822 -0.078257412 0.48700002 174 32 40
-0.027164496 -0.078257412 0.48700002 175 38 49
-0.026623171 -0.078257412 0.48700002 176 39 50
-0.026081845 -0.078257412 0.48700002 176 43 55
-0.02554052 -0.078257412 0.48700002 168 35 47
-0.024999194 -0.078257412 0.48700002 155 29 43
-0.024457866 -0.078257412 0.48700002 183 57 71
-0.023916539 -0.078257412 0.48700002 183 63 75
-0.023375213 -0.078257412 0.48700002 178 58 70
-0.022833887 -0.078257412 0.48700002 167 54 68
-0.022292562 -0.078257412 0.48700002 173 60 74
-0.021751236 -0.078257412 0.48700002 190 81 98
-0.021209911 -0.078257412 0.48700002 194 85 102
-0.019585932 -0.078257412 0.48700002 189 74 93
-0.019044606 -0.078257412 0.48700002 173 58 77
-0.01850328 -0.078257412 0.48700002 173 50 68
-0.017961955 -0.078257412 0.48700002 174 51 69
-0.017420627 -0.078257412 0.48700002 177 52 63
-0.016879302 -0.078257412 0.48700002 174 49 60
-0.016337976 -0.078257412 0.48700002 173 42 51
-0.015829086 -0.078418106 0.48800004 167 36 45
-0.015286649 -0.078418106 0.48800004 172 33 42
-0.014744212 -0.078418106 0.48800004 170 31 40
-0.014201774 -0.078418106 0.48800004 173 31 39
-0.013659337 -0.078418106 0.48800004 175 31 40
-0.013116899 -0.078418106 0.48800004 175 31 40
-0.012574461 -0.078418106 0.48800004 173 30 36
-0.012056679 -0.078578793 0.48900002 171 28 34
-0.01151313 -0.078578793 0.48900002 169 26 32
-0.010969581 -0.078578793 0.48900002 167 24 30
-0.010426031 -0.078578793 0.48900002 167 21 28
-0.0098824827 -0.078578793 0.48900002 164 18 25
-0.0093580317 -0.078739487 0.49000001 164 17 24
-0.008813371 -0.078739487 0.49000001 163 16 23
-0.0082687093 -0.078739487 0.49000001 166 13 20
-0.007724049 -0.078739487 0.49000001 164 11 18
-0.0071793883 -0.078739487 0.49000001 162 9 16
-0.0066347276 -0.078739487 0.49000001 164 11 18
-0.0060900673 -0.078739487 0.49000001 165 10 18
-0.0055454061 -0.078739487 0.49000001 165 10 18
-0.0050109513 -0.078900181 0.49100003 165 10 18
-0.0044651795 -0.078900181 0.49100003 166 11 19
-0.0039194068 -0.078900181 0.49100003 166 11 19
-0.0033736345 -0.078900181 0.49100003 166 11 19
-0.0028336218 -0.079060875 0.49200001 165 10 18
-0.002286738 -0.079060875 0.49200001 165 10 18
-0.0017398541 -0.079060875 0.49200001 164 11 18
-0.0011929704 -0.079060875 0.49200001 162 9 16
-0.00064739975 -0.079221569 0.49300003 165 12 19
-9.9404431e-05 -0.079221569 0.49300003 155 2 9
0.00044950086 -0.079382256 0.49400002 155 2 9
0.00099860772 -0.079382256 0.49400002 158 5 12
0.0015508478 -0.079542957 0.49500003 156 9 14
0.0021053108 -0.079703644 0.49600002 157 10 15
0.0026566407 -0.079703644 0.49600002 152 9 15
0.0032144384 -0.079864338 0.49700001 150 7 13
0.0037744592 -0.080025032 0.49800003 145 9 15
0.0043367031 -0.080185719 0.49900001 147 11 17
0.0049011698 -0.080346413 0.5 140 15 24
0.005467861 -0.080507115 0.50100005 141 16 25
0.006048799 -0.080828495 0.50300002 135 23 34
0.0066210465 -0.080989182 0.50400001 135 23 34
0.018969391 -0.083560273 0.52000004 84 83 83
0.019547399 -0.083560273 0.52000004 78 77 77
0.020125408 -0.083560273 0.52000004 68 67 67
0.0206636 -0.083399586 0.51900005 67 66 66
0.022351136 -0.083238885 0.51800001 75 63 63
0.022882661 -0.083078191 0.51700002 54 42 42
0.023457333 -0.083078191 0.51700002 45 28 28
0.023985524 -0.082917504 0.51600003 38 21 21
0.024559084 -0.082917504 0.51600003 41 25 22
0.02503523 -0.082596116 0.514 36 20 17
0.025606567 -0.082596116 0.514 44 13 11
0.026076047 -0.082274728 0.51200002 54 23 21
0.026593121 -0.082114041 0.51100004 110 59 59
0.028526207 -0.081149876 0.505 113 36 42
0.029029943 -0.080989182 0.50400001 117 35 41
0.029531457 -0.080828495 0.50300002 115 33 39
0.030030746 -0.080667801 0.50200003 115 33 39
0.030588744 -0.080667801 0.50200003 116 34 40
0.031146744 -0.080667801 0.50200003 122 45 49
0.031704746 -0.080667801 0.50200003 125 48 52
0.032198478 -0.080507115 0.50100005 131 50 51
0.032755364 -0.080507115 0.50100005 119 38 39
0.033312254 -0.080507115 0.50100005 133 17 25
0.03386914 -0.080507115 0.50100005 145 10 22
0.034426026 -0.080507115 0.50100005 144 9 21
0.034982916 -0.080507115 0.50100005 154 5 20
0.035539802 -0.080507115 0.50100005 154 5 20
0.036096688 -0.080507115 0.50100005 160 4 19
0.036653578 -0.080507115 0.50100005 160 4 19
0.03713619 -0.080346413 0.5 164 5 16
0.037691966 -0.080346413 0.5 165 6 17
0.038247742 -0.080346413 0.5 170 5 18
0.038725913 -0.080185719 0.49900001 172 7 20
0.039280575 -0.080185719 0.49900001 171 4 18
0.039835241 -0.080185719 0.49900001 171 4 18
0.040308964 -0.080025032 0.49800003 171 4 18
0.040862519 -0.080025032 0.49800003 171 4 18
0.041416071 -0.080025032 0.49800003 173 8 21
0.041969623 -0.080025032 0.49800003 175 10 23
0.042523175 -0.080025032 0.49800003 173 11 23
0.043076731 -0.080025032 0.49800003 173 11 23
0.043630283 -0.080025032 0.49800003 172 10 22
0.044183835 -0.080025032 0.49800003 170 8 20
0.044737387 -0.080025032 0.49800003 170 8 20
0.045290947 -0.080025032 0.49800003 171 9 21
0.045844499 -0.080025032 0.49800003 171 9 21
0.046398051 -0.080025032 0.49800003 172 10 22
0.046951603 -0.080025032 0.49800003 174 9 22
0.047505159 -0.080025032 0.49800003 175 10 23
0.047962204 -0.079864338 0.49700001 175 10 23
0.048514646 -0.079864338 0.49700001 174 7 19
0.049067087 -0.079864338 0.49700001 175 8 20
0.049619529 -0.079864338 0.49700001 177 10 22
0.050171971 -0.079864338 0.49700001 180 13 25
0.050724413 -0.079864338 0.49700001 179 9 22
0.051276855 -0.079864338 0.49700001 177 7 20
0.051829293 -0.079864338 0.49700001 176 6 19
0.052381735 -0.079864338 0.49700001 176 6 19
0.052934177 -0.079864338 0.49700001 177 7 20
0.053486619 -0.079864338 0.49700001 179 9 22
0.054039061 -0.079864338 0.49700001 178 11 23
0.054591503 -0.079864338 0.49700001 178 11 23
0.055143945 -0.079864338 0.49700001 180 13 25
0.055696383 -0.079864338 0.49700001 180 13 25
0.056248825 -0.079864338 0.49700001 177 12 25
0.056915559 -0.080025032 0.49800003 176 11 24
0.057469111 -0.080025032 0.49800003 173 14 25
0.058022663 -0.080025032 0.49800003 175 16 27
0.058693837 -0.080185719 0.49900001 171 18 27
0.059248503 -0.080185719 0.49900001 171 18 27
0.059923012 -0.080346413 0.5 168 21 31
0.060478792 -0.080346413 0.5 170 23 33
0.061156642 -0.080507115 0.50100005 163 31 38
0.061713532 -0.080507115 0.50100005 165 33 40
0.062270418 -0.080507115 0.50100005 160 39 45
0.062952705 -0.080667801 0.50200003 160 39 45
0.063510709 -0.080667801 0.50200003 154 42 51
0.064196333 -0.080828495 0.50300002 155 43 52
0.06475544 -0.080828495 0.50300002 154 45 62
-0.16896842 -0.13388869 0.83900005 60 60 60
-0.052971907 -0.080748133 0.50600004 99 28 37
-0.052305881 -0.080588542 0.505 107 22 31
-0.051642086 -0.080428965 0.50400001 106 21 30
-0.050980512 -0.080269381 0.50300002 113 16 27
-0.050421402 -0.080269381 0.50300002 119 13 25
-0.049763162 -0.080109805 0.50200003 119 13 25
-0.049107146 -0.079950228 0.50100005 124 12 23
-0.048550256 -0.079950228 0.50100005 124 12 23
-0.04789757 -0.079790637 0.5 127 10 21
-0.047341794 -0.079790637 0.5 128 11 22
-0.046692446 -0.07963106 0.49900001 134 11 19
-0.046137784 -0.07963106 0.49900001 134 11 19
-0.04549177 -0.079471476 0.49800003 135 10 19
-0.044938218 -0.079471476 0.49800003 134 9 18
-0.044295538 -0.079311892 0.49700001 139 7 14
-0.043743093 -0.079311892 0.49700001 142 10 17
-0.043103747 -0.079152316 0.49600002 142 8 15
-0.042552419 -0.079152316 0.49600002 142 8 15
-0.041916411 -0.078992739 0.49500003 147 6 11
-0.041366193 -0.078992739 0.49500003 148 5 11
-0.040733516 -0.078833155 0.49400002 150 7 13
-0.040103067 -0.078673571 0.49300003 153 7 12
-0.039555069 -0.078673571 0.49300003 154 8 13
-0.03892795 -0.078513987 0.49200001 154 8 13
-0.038381066 -0.078513987 0.49200001 155 9 14
-0.037757285 -0.078354411 0.49100003 157 10 15
-0.037211515 -0.078354411 0.49100003 156 9 14
-0.036665741 -0.078354411 0.49100003 158 8 14
-0.036046404 -0.078194827 0.49000001 158 8 14
-0.035501745 -0.078194827 0.49000001 162 9 16
-0.034957085 -0.078194827 0.49000001 166 13 20
-0.034412421 -0.078194827 0.49000001 169 16 23
-0.033867761 -0.078194827 0.49000001 171 18 25
-0.033255097 -0.078035243 0.48900002 171 18 27
-0.032711547 -0.078035243 0.48900002 171 18 27
-0.032167997 -0.078035243 0.48900002 175 22 31
-0.031624451 -0.078035243 0.48900002 188 35 44
-0.031017341 -0.077875666 0.48800004 198 51 58
-0.030474901 -0.077875666 0.48800004 183 37 44
-0.029932464 -0.077875666 0.48800004 177 31 38
-0.029390028 -0.077875666 0.48800004 175 34 39
-0.028788475 -0.077716082 0.48700002 181 40 45
-0.028247148 -0.077716082 0.48700002 178 39 48
-0.027705822 -0.077716082 0.48700002 180 41 50
-0.027164496 -0.077716082 0.48700002 179 46 58
-0.026623171 -0.077716082 0.48700002 171 38 50
-0.026081845 -0.077716082 0.48700002 172 44 56
-0.02554052 -0.077716082 0.48700002 176 48 60
-0.024999194 -0.077716082 0.48700002 195 75 89
-0.024457866 -0.077716082 0.48700002 213 93 107
-0.023916539 -0.077716082 0.48700002 190 85 94
-0.023375213 -0.077716082 0.48700002 208 103 112
-0.022833887 -0.077716082 0.48700002 206 105 117
-0.022292562 -0.077716082 0.48700002 195 94 106
-0.021751236 -0.077716082 0.48700002 196 98 111
-0.021209911 -0.077716082 0.48700002 196 98 111
-0.020668585 -0.077716082 0.48700002 193 91 108
-0.020127259 -0.077716082 0.48700002 178 76 93
-0.01850328 -0.077716082 0.48700002 178 57 74
-0.017961955 -0.077716082 0.48700002 176 55 72
-0.017420627 -0.077716082 0.48700002 177 54 64
-0.016879302 -0.077716082 0.48700002 180 57 67
-0.016337976 -0.077716082 0.48700002 182 51 62
-0.015796648 -0.077716082 0.48700002 170 39 50
-0.015286649 -0.077875666 0.48800004 171 31 43
-0.014744212 -0.077875666 0.48800004 170 30 42
-0.014201774 -0.077875666 0.48800004 174 30 41
-0.013659337 -0.077875666 0.48800004 172 28 37
-0.013116899 -0.077875666 0.48800004 173 29 38
-0.012574461 -0.077875666 0.48800004 173 30 36
-0.012032024 -0.077875666 0.48800004 172 29 35
-0.01151313 -0.078035243 0.48900002 169 26 32
-0.010969581 -0.078035243 0.48900002 167 24 30
-0.010426031 -0.078035243 0.48900002 167 21 26
-0.0098824827 -0.078035243 0.48900002 164 18 23
-0.0093580317 -0.078194827 0.49000001 164 17 22
-0.008813371 -0.078194827 0.49000001 163 16 21
-0.0082687093 -0.078194827 0.49000001 166 13 20
-0.007724049 -0.078194827 0.49000001 164 11 18
-0.0071793883 -0.078194827 0.49000001 161 8 15
-0.0066347276 -0.078194827 0.49000001 162 9 16
-0.0060900673 -0.078194827 0.49000001 163 8 16
-0.0055454061 -0.078194827 0.49000001 163 8 16
-0.0050109513 -0.078354411 0.49100003 163 8 16
-0.0044651795 -0.078354411 0.49100003 165 10 18
-0.0039194068 -0.078354411 0.49100003 166 11 19
-0.0033736345 -0.078354411 0.49100003 166 11 19
-0.0028336218 -0.078513987 0.49200001 166 11 19
-0.002286738 -0.078513987 0.49200001 166 11 19
-0.0017398541 -0.078513987 0.49200001 165 10 18
-0.0011929704 -0.078513987 0.49200001 163 8 16
-0.00064739975 -0.078673571 0.49300003 161 8 15
-9.9404431e-05 -0.078673571 0.49300003 157 4 11
0.00044950086 -0.078833155 0.49400002 152 2 8
0.00099860772 -0.078833155 0.49400002 153 3 9
0.0015508478 -0.078992739 0.49500003 157 7 15
0.0021010663 -0.078992739 0.49500003 158 8 16
0.0026566407 -0.079152316 0.49600002 152 9 15
0.0032144384 -0.079311892 0.49700001 151 8 14
0.0037744592 -0.079471476 0.49800003 146 10 16
0.0043367031 -0.07963106 0.49900001 147 11 17
0.0049011698 -0.079790637 0.5 144 13 22
0.005467861 -0.079950228 0.50100005 146 15 24
0.0060367738 -0.080109805 0.50200003 138 21 34
0.0066079097 -0.080269381 0.50300002 140 23 36
0.021240497 -0.082822688 0.51900005 70 62 61
0.021775354 -0.082663104 0.51800001 51 43 42
0.022351136 -0.082663104 0.51800001 44 27 27
0.022882661 -0.08250352 0.51700002 41 24 24
0.023411961 -0.082343943 0.51600003 44 21 20
0.023985524 -0.082343943 0.51600003 46 23 22
0.02451149 -0.082184367 0.51500005 56 18 18
0.02503523 -0.082024775 0.514 60 22 22
0.025556751 -0.081865199 0.51300001 93 35 35
0.026025118 -0.081546038 0.51100004 115 39 36
0.026489036 -0.08122687 0.509 114 38 35
0.027001664 -0.081067286 0.50800002 123 35 38
0.027457807 -0.080748133 0.50600004 122 34 37
0.028413234 -0.080269381 0.50300002 126 30 36
0.028914748 -0.080109805 0.50200003 128 32 38
0.029472746 -0.080109805 0.50200003 126 30 36
0.029970923 -0.079950228 0.50100005 126 30 36
0.030527811 -0.079950228 0.50100005 125 29 35
0.0310847 -0.079950228 0.50100005 121 24 30
0.031641588 -0.079950228 0.50100005 122 25 31
0.032198478 -0.079950228 0.50100005 132 27 34
0.032755364 -0.079950228 0.50100005 133 28 35
0.033245757 -0.079790637 0.5 141 18 28
0.033801533 -0.079790637 0.5 149 12 27
0.034357309 -0.079790637 0.5 147 10 25
0.034913085 -0.079790637 0.5 154 5 20
0.035468861 -0.079790637 0.5 155 6 21
0.036024638 -0.079790637 0.5 163 4 20
0.036507253 -0.07963106 0.49900001 164 5 21
0.037061919 -0.07963106 0.49900001 167 5 17
0.037616584 -0.07963106 0.49900001 168 6 18
0.038171247 -0.07963106 0.49900001 173 6 18
0.038648307 -0.079471476 0.49800003 174 7 19
0.039201859 -0.079471476 0.49800003 173 3 16
0.039755411 -0.079471476 0.49800003 175 5 18
0.040308964 -0.079471476 0.49800003 175 5 18
0.040862519 -0.079471476 0.49800003 180 10 23
0.041416071 -0.079471476 0.49800003 177 10 24
0.041969623 -0.079471476 0.49800003 175 8 22
0.042523175 -0.079471476 0.49800003 174 9 22
0.043076731 -0.079471476 0.49800003 174 9 22
0.043630283 -0.079471476 0.49800003 174 9 22
0.044183835 -0.079471476 0.49800003 172 7 20
0.044737387 -0.079471476 0.49800003 171 9 21
0.045290947 -0.079471476 0.49800003 174 12 24
0.045844499 -0.079471476 0.49800003 173 11 23
0.046304882 -0.079311892 0.49700001 172 10 22
0.046857323 -0.079311892 0.49700001 175 10 23
0.047409765 -0.079311892 0.49700001 177 12 25
0.047962204 -0.079311892 0.49700001 179 14 27
0.048514646 -0.079311892 0.49700001 174 9 22
0.049067087 -0.079311892 0.49700001 174 9 22
0.049619529 -0.079311892 0.49700001 177 10 22
0.050171971 -0.079311892 0.49700001 178 11 23
0.050724413 -0.079311892 0.49700001 179 9 22
0.051276855 -0.079311892 0.49700001 176 6 19
0.051829293 -0.079311892 0.49700001 176 6 19
0.052381735 -0.079311892 0.49700001 177 7 20
0.052934177 -0.079311892 0.49700001 178 8 21
0.053486619 -0.079311892 0.49700001 179 9 22
0.054039061 -0.079311892 0.49700001 179 9 22
0.054591503 -0.079311892 0.49700001 179 9 22
0.055143945 -0.079311892 0.49700001 178 11 23
0.055696383 -0.079311892 0.49700001 180 13 25
0.056248825 -0.079311892 0.49700001 177 12 25
0.056801267 -0.079311892 0.49700001 176 11 24
0.057469111 -0.079471476 0.49800003 177 12 25
0.058022663 -0.079471476 0.49800003 180 15 28
0.058576215 -0.079471476 0.49800003 175 17 28
0.059248503 -0.07963106 0.49900001 175 17 28
0.059803165 -0.07963106 0.49900001 171 20 31
0.060478792 -0.079790637 0.5 172 21 32
0.061034568 -0.079790637 0.5 170 28 38
0.061713532 -0.079950228 0.50100005 171 29 39
0.062270418 -0.079950228 0.50100005 160 35 42
0.062827304 -0.079950228 0.50100005 159 34 41
0.063510709 -0.080109805 0.50200003 162 45 56
0.064196333 -0.080269381 0.50300002 167 50 61
0.064884178 -0.080428965 0.50400001 160 47 63
0.065444402 -0.080428965 0.50400001 160 47 63
-0.052971907 -0.080185689 0.50600004 101 29 41
-0.052202307 -0.079868741 0.50400001 107 22 31
-0.051642086 -0.079868741 0.50400001 105 20 29
-0.050980512 -0.079710275 0.50300002 115 14 26
-0.050421402 -0.079710275 0.50300002 121 12 25
-0.049763162 -0.079551809 0.50200003 122 13 26
-0.049107146 -0.079393335 0.50100005 125 13 24
-0.048550256 -0.079393335 0.50100005 124 12 23
-0.04789757 -0.079234861 0.5 129 9 21
-0.047341794 -0.079234861 0.5 130 10 22
-0.046786018 -0.079234861 0.5 133 10 18
-0.046137784 -0.079076394 0.49900001 134 11 19
-0.04549177 -0.078917928 0.49800003 136 8 16
-0.044938218 -0.078917928 0.49800003 136 8 16
-0.044295538 -0.078759454 0.49700001 139 7 14
-0.043743093 -0.078759454 0.49700001 140 8 15
-0.043103747 -0.078600988 0.49600002 142 8 15
-0.042552419 -0.078600988 0.49600002 141 7 14
-0.041916411 -0.078442521 0.49500003 144 6 10
-0.041282624 -0.078284048 0.49400002 146 5 10
-0.040733516 -0.078284048 0.49400002 146 5 10
-0.040103067 -0.078125581 0.49300003 150 7 11
-0.039555069 -0.078125581 0.49300003 151 8 12
-0.03892795 -0.077967107 0.49200001 154 8 13
-0.038381066 -0.077967107 0.49200001 155 9 14
-0.037757285 -0.077808641 0.49100003 155 9 14
-0.037211515 -0.077808641 0.49100003 155 9 14
-0.036591064 -0.077650167 0.49000001 156 9 14
-0.036046404 -0.077650167 0.49000001 157 10 15
-0.035501745 -0.077650167 0.49000001 162 12 18
-0.034957085 -0.077650167 0.49000001 164 14 20
-0.034412421 -0.077650167 0.49000001 168 15 22
-0.033798646 -0.077491701 0.48900002 169 16 23
-0.033255097 -0.077491701 0.48900002 169 16 23
-0.032711547 -0.077491701 0.48900002 171 18 25
-0.032167997 -0.077491701 0.48900002 174 21 30
-0.03155978 -0.077333227 0.48800004 191 38 47
-0.031017341 -0.077333227 0.48800004 186 39 46
-0.030474901 -0.077333227 0.48800004 176 32 41
-0.029932464 -0.077333227 0.48800004 177 33 42
-0.029329801 -0.07717476 0.48700002 180 38 46
-0.028788475 -0.07717476 0.48700002 182 40 48
-0.028247148 -0.07717476 0.48700002 171 36 46
-0.027705822 -0.07717476 0.48700002 185 50 60
-0.027164496 -0.07717476 0.48700002 198 69 84
-0.026623171 -0.07717476 0.48700002 196 67 82
-0.026081845 -0.07717476 0.48700002 194 72 85
-0.02554052 -0.07717476 0.48700002 188 66 79
-0.024999194 -0.07717476 0.48700002 198 87 101
-0.024457866 -0.07717476 0.48700002 201 90 104
-0.023916539 -0.07717476 0.48700002 191 90 102
-0.023375213 -0.07717476 0.48700002 200 99 111
-0.022833887 -0.07717476 0.48700002 195 101 113
-0.022292562 -0.07717476 0.48700002 193 99 111
-0.021751236 -0.07717476 0.48700002 191 96 111
-0.021209911 -0.07717476 0.48700002 191 96 111
-0.01850328 -0.07717476 0.48700002 178 60 78
-0.017961955 -0.07717476 0.48700002 175 57 75
-0.017420627 -0.07717476 0.48700002 179 55 68
-0.016879302 -0.07717476 0.48700002 180 56 69
-0.016337976 -0.07717476 0.48700002 178 47 60
-0.015796648 -0.07717476 0.48700002 166 35 48
-0.015255324 -0.07717476 0.48700002 170 33 46
-0.014713997 -0.07717476 0.48700002 172 28 39
-0.014172671 -0.07717476 0.48700002 172 28 39
-0.013659337 -0.077333227 0.48800004 171 24 34
-0.013116899 -0.077333227 0.48800004 171 24 34
-0.012574461 -0.077333227 0.48800004 173 26 36
-0.012032024 -0.077333227 0.48800004 173 26 36
-0.01151313 -0.077491701 0.48900002 170 24 31
-0.010969581 -0.077491701 0.48900002 168 22 29
-0.010426031 -0.077491701 0.48900002 165 18 23
-0.0098824827 -0.077491701 0.48900002 164 17 22
-0.0093580317 -0.077650167 0.49000001 164 14 20
-0.008813371 -0.077650167 0.49000001 163 13 19
-0.0082687093 -0.077650167 0.49000001 165 12 19
-0.007724049 -0.077650167 0.49000001 164 11 18
-0.0071793883 -0.077650167 0.49000001 162 9 16
-0.0066347276 -0.077650167 0.49000001 161 8 15
-0.0060900673 -0.077650167 0.49000001 162 9 16
-0.0055454061 -0.077650167 0.49000001 162 9 16
-0.0050109513 -0.077808641 0.49100003 165 10 18
-0.0044651795 -0.077808641 0.49100003 166 11 19
-0.0039194068 -0.077808641 0.49100003 166 11 19
-0.0033736345 -0.077808641 0.49100003 166 11 19
-0.0028336218 -0.077967107 0.49200001 165 12 19
-0.002286738 -0.077967107 0.49200001 165 12 19
-0.0017398541 -0.077967107 0.49200001 165 12 19
-0.0011929704 -0.077967107 0.49200001 162 9 16
-0.00064739975 -0.078125581 0.49300003 160 7 14
-9.9404431e-05 -0.078125581 0.49300003 159 6 13
0.00044950086 -0.078284048 0.49400002 156 6 12
0.00099860772 -0.078284048 0.49400002 156 6 12
0.0015508478 -0.078442521 0.49500003 154 7 12
0.0021010663 -0.078442521 0.49500003 155 8 13
0.0026566407 -0.078600988 0.49600002 152 9 15
0.0032144384 -0.078759454 0.49700001 152 9 15
0.0037668799 -0.078759454 0.49700001 149 10 17
0.0043280125 -0.078917928 0.49800003 148 9 16
0.0048913676 -0.079076394 0.49900001 143 12 21
0.0054569463 -0.079234861 0.5 144 13 22
0.0060247486 -0.079393335 0.50100005 135 18 29
0.0066079097 -0.079710275 0.50300002 135 18 29
0.021199569 -0.082087316 0.51800001 51 36 37
0.021775354 -0.082087316 0.51800001 45 30 31
0.022307988 -0.081928849 0.51700002 56 25 25
0.022882661 -0.081928849 0.51700002 62 31 31
0.023411961 -0.081770383 0.51600003 74 27 28
0.02393904 -0.081611916 0.51500005 76 29 30
0.024463892 -0.081453435 0.514 88 26 27
0.024986524 -0.081294969 0.51300001 89 27 28
0.025457116 -0.080978036 0.51100004 106 28 28
0.02597419 -0.08081957 0.51000005 122 30 30
0.026436996 -0.080502622 0.50800002 120 28 28
0.026895361 -0.080185689 0.50600004 127 28 30
0.027854124 -0.079710275 0.50300002 130 25 32
0.028356748 -0.079551809 0.50200003 132 27 34
0.028857149 -0.079393335 0.50100005 133 28 35
0.029414037 -0.079393335 0.50100005 133 28 35
0.029970923 -0.079393335 0.50100005 133 25 33
0.030527811 -0.079393335 0.50100005 130 22 30
0.031022651 -0.079234861 0.5 129 19 28
0.031578429 -0.079234861 0.5 124 14 23
0.032134205 -0.079234861 0.5 132 11 21
0.032689981 -0.079234861 0.5 146 13 25
0.033245757 -0.079234861 0.5 147 14 26
0.03373393 -0.079076394 0.49900001 151 11 25
0.034288596 -0.079076394 0.49900001 151 11 25
0.034843259 -0.079076394 0.49900001 157 8 23
0.035397924 -0.079076394 0.49900001 157 8 23
0.03595259 -0.079076394 0.49900001 163 4 20
0.036434095 -0.078917928 0.49800003 164 5 21
0.036987647 -0.078917928 0.49800003 169 4 17
0.037541199 -0.078917928 0.49800003 170 5 18
0.038094752 -0.078917928 0.49800003 174 7 21
0.038570698 -0.078759454 0.49700001 176 9 23
0.03912314 -0.078759454 0.49700001 177 10 24
0.039755411 -0.078917928 0.49800003 174 7 21
0.04022802 -0.078759454 0.49700001 173 6 20
0.040780462 -0.078759454 0.49700001 174 7 21
0.041332904 -0.078759454 0.49700001 176 9 23
0.041885346 -0.078759454 0.49700001 175 8 22
0.042437788 -0.078759454 0.49700001 173 8 21
0.04299023 -0.078759454 0.49700001 173 8 21
0.043542672 -0.078759454 0.49700001 174 9 22
0.04409511 -0.078759454 0.49700001 174 9 22
0.044647552 -0.078759454 0.49700001 173 11 23
0.045199998 -0.078759454 0.49700001 174 12 24
0.04575244 -0.078759454 0.49700001 172 10 22
0.046304882 -0.078759454 0.49700001 170 8 20
0.046857323 -0.078759454 0.49700001 175 13 25
0.047409765 -0.078759454 0.49700001 181 16 29
0.047962204 -0.078759454 0.49700001 181 16 29
0.048514646 -0.078759454 0.49700001 180 15 28
0.049067087 -0.078759454 0.49700001 177 12 25
0.049619529 -0.078759454 0.49700001 177 10 22
0.050171971 -0.078759454 0.49700001 176 9 21
0.050724413 -0.078759454 0.49700001 177 7 20
0.051276855 -0.078759454 0.49700001 176 6 19
0.051829293 -0.078759454 0.49700001 176 6 19
0.052381735 -0.078759454 0.49700001 177 7 20
0.052934177 -0.078759454 0.49700001 177 7 20
0.053486619 -0.078759454 0.49700001 177 7 20
0.054039061 -0.078759454 0.49700001 176 6 19
0.054591503 -0.078759454 0.49700001 177 7 20
0.055143945 -0.078759454 0.49700001 177 10 22
0.055696383 -0.078759454 0.49700001 178 11 23
0.056248825 -0.078759454 0.49700001 178 11 25
0.056801267 -0.078759454 0.49700001 177 10 24
0.057469111 -0.078917928 0.49800003 177 12 25
0.058022663 -0.078917928 0.49800003 179 14 27
0.058576215 -0.078917928 0.49800003 177 15 27
0.059248503 -0.079076394 0.49900001 178 16 28
0.059803165 -0.079076394 0.49900001 174 15 29
0.060478792 -0.079234861 0.5 174 15 29
0.061034568 -0.079234861 0.5 171 20 33
0.061713532 -0.079393335 0.50100005 172 21 34
0.062270418 -0.079393335 0.50100005 164 24 36
0.062952705 -0.079551809 0.50200003 161 21 33
0.063510709 -0.079551809 0.50200003 167 42 60
0.064196333 -0.079710275 0.50300002 176 51 69
-0.052867215 -0.079465874 0.505 103 29 39
-0.052202307 -0.079308517 0.50400001 107 21 30
-0.051539622 -0.079151161 0.50300002 114 13 25
-0.050980512 -0.079151161 0.50300002 115 14 26
-0.050421402 -0.079151161 0.50300002 122 11 25
-0.049763162 -0.078993805 0.50200003 122 11 25
-0.049205162 -0.078993805 0.50200003 125 11 23
-0.048550256 -0.078836448 0.50100005 125 11 23
-0.047993369 -0.078836448 0.50100005 129 9 21
-0.047341794 -0.078679085 0.5 129 9 21
-0.046786018 -0.078679085 0.5 133 8 17
-0.046137784 -0.078521729 0.49900001 133 8 17
-0.04549177 -0.078364372 0.49800003 135 7 15
-0.044938218 -0.078364372 0.49800003 135 7 15
-0.044295538 -0.078207009 0.49700001 139 6 16
-0.043743093 -0.078207009 0.49700001 140 7 17
-0.043103747 -0.078049652 0.49600002 143 7 15
-0.042552419 -0.078049652 0.49600002 143 7 15
-0.041916411 -0.077892296 0.49500003 144 6 10
-0.041282624 -0.07773494 0.49400002 145 4 9
-0.040651061 -0.077577583 0.49300003 146 5 10
-0.040103067 -0.077577583 0.49300003 148 5 9
-0.039474834 -0.07742022 0.49200001 150 7 11
-0.03892795 -0.07742022 0.49200001 151 8 12
-0.038381066 -0.07742022 0.49200001 152 9 13
-0.037757285 -0.077262864 0.49100003 152 9 13
-0.037211515 -0.077262864 0.49100003 153 10 14
-0.036665741 -0.077262864 0.49100003 156 10 15
-0.036046404 -0.077105507 0.49000001 157 11 16
-0.035501745 -0.077105507 0.49000001 162 12 18
-0.034957085 -0.077105507 0.49000001 164 14 20
-0.034412421 -0.077105507 0.49000001 167 14 21
-0.033798646 -0.076948151 0.48900002 168 15 22
-0.033255097 -0.076948151 0.48900002 169 16 23
-0.032711547 -0.076948151 0.48900002 172 19 26
-0.032167997 -0.076948151 0.48900002 171 21 29
-0.03155978 -0.076790795 0.48800004 176 26 34
-0.031017341 -0.076790795 0.48800004 175 27 37
-0.030474901 -0.076790795 0.48800004 167 23 32
-0.029932464 -0.076790795 0.48800004 173 29 38
-0.029329801 -0.076633431 0.48700002 170 34 42
-0.028788475 -0.076633431 0.48700002 175 39 47
-0.028247148 -0.076633431 0.48700002 171 40 51
-0.027705822 -0.076633431 0.48700002 178 47 58
-0.027164496 -0.076633431 0.48700002 182 58 73
-0.026623171 -0.076633431 0.48700002 184 60 75
-0.026081845 -0.076633431 0.48700002 179 62 75
-0.02554052 -0.076633431 0.48700002 171 54 67
-0.024999194 -0.076633431 0.48700002 183 77 89
-0.024457866 -0.076633431 0.48700002 198 92 104
-0.023916539 -0.076633431 0.48700002 189 92 103
-0.023375213 -0.076633431 0.48700002 191 94 105
-0.022833887 -0.076633431 0.48700002 187 97 110
-0.022292562 -0.076633431 0.48700002 191 101 114
-0.021751236 -0.076633431 0.48700002 191 101 116
-0.021209911 -0.076633431 0.48700002 191 101 116
-0.01850328 -0.076633431 0.48700002 180 65 84
-0.017961955 -0.076633431 0.48700002 172 57 76
-0.017420627 -0.076633431 0.48700002 176 56 70
-0.016879302 -0.076633431 0.48700002 172 52 66
-0.016337976 -0.076633431 0.48700002 172 40 56
-0.015796648 -0.076633431 0.48700002 170 38 54
-0.015255324 -0.076633431 0.48700002 172 35 50
-0.014713997 -0.076633431 0.48700002 173 30 43
-0.014172671 -0.076633431 0.48700002 172 29 42
-0.013631346 -0.076633431 0.48700002 172 28 39
-0.013116899 -0.076790795 0.48800004 169 25 36
-0.012574461 -0.076790795 0.48800004 169 25 34
-0.012032024 -0.076790795 0.48800004 168 24 33
-0.011489586 -0.076790795 0.48800004 170 23 33
-0.010969581 -0.076948151 0.48900002 167 20 30
-0.010426031 -0.076948151 0.48900002 165 18 23
-0.0098824827 -0.076948151 0.48900002 164 17 22
-0.009338934 -0.076948151 0.48900002 163 16 21
-0.008813371 -0.077105507 0.49000001 161 14 19
-0.0082687093 -0.077105507 0.49000001 165 12 19
-0.007724049 -0.077105507 0.49000001 164 11 18
-0.0071793883 -0.077105507 0.49000001 164 11 18
-0.0066347276 -0.077105507 0.49000001 162 9 16
-0.0060900673 -0.077105507 0.49000001 162 9 16
-0.0055454061 -0.077105507 0.49000001 162 9 16
-0.0050109513 -0.077262864 0.49100003 162 9 16
-0.0044651795 -0.077262864 0.49100003 164 11 18
-0.0039194068 -0.077262864 0.49100003 165 12 19
-0.0033736345 -0.077262864 0.49100003 165 12 19
-0.0028336218 -0.07742022 0.49200001 165 12 19
-0.002286738 -0.07742022 0.49200001 165 12 19
-0.0017398541 -0.07742022 0.49200001 165 12 19
-0.0011929704 -0.07742022 0.49200001 164 11 18
-0.00064739975 -0.077577583 0.49300003 164 11 18
-9.9404431e-05 -0.077577583 0.49300003 161 8 15
0.00044950086 -0.07773494 0.49400002 157 7 13
0.00099860772 -0.07773494 0.49400002 157 7 13
0.0015508478 -0.077892296 0.49500003 155 8 13
0.0021010663 -0.077892296 0.49500003 155 8 13
0.0026566407 -0.078049652 0.49600002 153 10 16
0.0032079709 -0.078049652 0.49600002 152 9 15
0.0037668799 -0.078207009 0.49700001 148 9 16
0.0043280125 -0.078364372 0.49800003 147 8 15
0.0048913676 -0.078521729 0.49900001 142 9 21
0.0054569463 -0.078679085 0.5 144 11 23
0.0060247486 -0.078836448 0.50100005 137 15 28
0.0065947729 -0.078993805 0.50200003 139 17 30
0.018932912 -0.081668898 0.51900005 66 58 57
0.019509807 -0.081668898 0.51900005 58 50 49
0.020086706 -0.081668898 0.51900005 63 46 48
0.020623785 -0.081511535 0.51800001 55 38 40
0.021199569 -0.081511535 0.51800001 73 33 38
0.021733316 -0.081354178 0.51700002 78 38 43
0.022307988 -0.081354178 0.51700002 89 32 39
0.022838401 -0.081196822 0.51600003 86 29 36
0.023366591 -0.081039466 0.51500005 92 26 31
0.023892554 -0.080882102 0.514 92 26 31
0.024416298 -0.080724746 0.51300001 104 27 33
0.024889112 -0.080410033 0.51100004 102 25 31
0.025357477 -0.080095306 0.509 118 25 30
0.025872327 -0.07993795 0.50800002 125 24 27
0.026332915 -0.079623237 0.50600004 128 27 30
0.026789052 -0.079308517 0.50400001 133 24 30
0.027295014 -0.079151161 0.50300002 133 24 30
0.02779875 -0.078993805 0.50200003 136 25 31
0.028300261 -0.078836448 0.50100005 136 25 31
0.028857149 -0.078836448 0.50100005 138 25 32
0.029355323 -0.078679085 0.5 138 25 32
0.029911099 -0.078679085 0.5 138 22 30
0.030466875 -0.078679085 0.5 135 19 27
0.031022651 -0.078679085 0.5 139 16 24
0.031515274 -0.078521729 0.49900001 140 7 19
0.032069936 -0.078521729 0.49900001 142 9 21
0.032624602 -0.078521729 0.49900001 148 8 20
0.033179268 -0.078521729 0.49900001 151 11 23
0.033666328 -0.078364372 0.49800003 155 11 22
0.034219883 -0.078364372 0.49800003 157 13 24
0.034773435 -0.078364372 0.49800003 162 11 24
0.035326988 -0.078364372 0.49800003 160 9 22
0.03588054 -0.078364372 0.49800003 163 7 20
0.036434095 -0.078364372 0.49800003 163 7 20
0.036987647 -0.078364372 0.49800003 168 6 18
0.037465815 -0.078207009 0.49700001 171 9 21
0.038018256 -0.078207009 0.49700001 173 8 21
0.038570698 -0.078207009 0.49700001 175 10 23
0.03912314 -0.078207009 0.49700001 177 10 24
0.039675578 -0.078207009 0.49700001 175 8 22
0.04022802 -0.078207009 0.49700001 173 6 20
0.040780462 -0.078207009 0.49700001 176 9 23
0.041332904 -0.078207009 0.49700001 175 8 22
0.041885346 -0.078207009 0.49700001 175 8 22
0.042437788 -0.078207009 0.49700001 173 8 21
0.04299023 -0.078207009 0.49700001 173 8 21
0.043542672 -0.078207009 0.49700001 173 8 21
0.04409511 -0.078207009 0.49700001 174 9 22
0.044647552 -0.078207009 0.49700001 174 12 24
0.045199998 -0.078207009 0.49700001 174 12 24
0.04575244 -0.078207009 0.49700001 172 10 22
0.046304882 -0.078207009 0.49700001 171 9 21
0.046857323 -0.078207009 0.49700001 184 22 34
0.047314372 -0.078049652 0.49600002 181 19 31
0.047865704 -0.078049652 0.49600002 180 18 30
0.048417032 -0.078049652 0.49600002 179 17 29
0.049067087 -0.078207009 0.49700001 177 15 27
0.049619529 -0.078207009 0.49700001 177 12 23
0.050171971 -0.078207009 0.49700001 175 10 21
0.050724413 -0.078207009 0.49700001 175 8 20
