ply
format ascii 1.0
comment PCL generated
element vertex 1082
property float x
property float y
property float z
property uchar red
property uchar green
property uchar blue
element camera 0
property float view_px
property float view_py
property float view_pz
property float x_axisx
property float x_axisy
property float x_axisz
property float y_axisx
property float y_axisy
property float y_axisz
property float z_axisx
property float z_axisy
property float z_axisz
property float focal
property float scalex
property float scaley
property float centerx
property float centery
property int viewportx
property int viewporty
property float k1
property float k2
end_header
-0.037893597 -0.13647981 0.5 176 25 38
-0.037337821 -0.13647981 0.5 174 22 38
-0.036782045 -0.13647981 0.5 176 24 40
-0.036153816 -0.13620685 0.49900001 176 24 42
-0.035599153 -0.13620685 0.49900001 177 25 43
-0.035044488 -0.13620685 0.49900001 176 26 48
-0.034489825 -0.13620685 0.49900001 177 27 49
-0.033935159 -0.13620685 0.49900001 177 27 51
-0.033380494 -0.13620685 0.49900001 178 28 52
-0.032760046 -0.13593389 0.49800003 177 28 52
-0.032206494 -0.13593389 0.49800003 178 29 53
-0.031652942 -0.13593389 0.49800003 178 29 53
-0.031099387 -0.13593389 0.49800003 178 29 53
-0.029438728 -0.13593389 0.49800003 175 26 50
-0.028885175 -0.13593389 0.49800003 174 25 49
-0.028331622 -0.13593389 0.49800003 181 32 56
-0.027778069 -0.13593389 0.49800003 167 18 42
-0.027224516 -0.13593389 0.49800003 169 17 37
-0.026670963 -0.13593389 0.49800003 167 15 35
-0.026117411 -0.13593389 0.49800003 167 15 33
-0.025563857 -0.13593389 0.49800003 169 17 35
-0.025060523 -0.13620685 0.49900001 172 18 32
-0.024505859 -0.13620685 0.49900001 172 18 32
-0.023951193 -0.13620685 0.49900001 168 14 26
-0.023396529 -0.13620685 0.49900001 168 14 26
-0.022841865 -0.13620685 0.49900001 171 17 29
-0.022287201 -0.13620685 0.49900001 171 17 29
-0.021776088 -0.13647981 0.5 169 15 27
-0.021220312 -0.13647981 0.5 170 15 25
-0.020664535 -0.13647981 0.5 169 14 24
-0.020108759 -0.13647981 0.5 168 13 21
-0.019552983 -0.13647981 0.5 168 13 21
-0.018997207 -0.13647981 0.5 169 11 18
-0.018478315 -0.13675278 0.50100005 169 11 18
-0.017921425 -0.13675278 0.50100005 169 10 17
-0.017364539 -0.13675278 0.50100005 166 7 14
-0.016807651 -0.13675278 0.50100005 169 4 13
-0.016250763 -0.13675278 0.50100005 169 4 13
-0.015693875 -0.13675278 0.50100005 168 3 12
-0.015136988 -0.13675278 0.50100005 168 3 12
-0.0145801 -0.13675278 0.50100005 170 3 13
-0.014023213 -0.13675278 0.50100005 171 4 14
-0.013493204 -0.13702574 0.50200003 171 4 14
-0.012935204 -0.13702574 0.50200003 170 3 13
-0.012377204 -0.13702574 0.50200003 169 2 12
-0.011819205 -0.13702574 0.50200003 170 3 13
-0.011261206 -0.13702574 0.50200003 171 4 14
-0.010703207 -0.13702574 0.50200003 170 3 13
-0.010165417 -0.13729869 0.50300002 170 3 13
-0.0096063055 -0.13729869 0.50300002 169 2 12
-0.0090471953 -0.13729869 0.50300002 168 1 11
-0.0085049579 -0.13757165 0.50400001 168 1 11
-0.0079447357 -0.13757165 0.50400001 167 1 8
-0.0073991651 -0.13784461 0.505 167 1 8
-0.0068513723 -0.13811758 0.50600004 165 1 7
-0.006288927 -0.13811758 0.50600004 163 0 5
-0.0057377983 -0.13839054 0.50700003 161 0 5
-0.0051844465 -0.13866349 0.50800002 160 0 4
-0.0046197781 -0.13866349 0.50800002 157 0 3
-0.0040630917 -0.13893645 0.509 157 0 3
-0.0035041827 -0.13920942 0.51000005 156 0 3
-0.0029430503 -0.13948238 0.51100004 157 0 4
-0.002375047 -0.13948238 0.51100004 154 2 4
-0.0018070438 -0.13948238 0.51100004 153 1 3
-0.0012414651 -0.13975534 0.51200002 147 5 13
-0.00067235029 -0.13975534 0.51200002 151 9 17
-0.00010323543 -0.13975534 0.51200002 136 19 32
0.00046678935 -0.14002828 0.51300001 140 23 36
0.0010370157 -0.14002828 0.51300001 124 37 49
0.0016072422 -0.14002828 0.51300001 128 41 53
0.0021817132 -0.14030124 0.514 124 64 72
0.0027584073 -0.14057422 0.51500005 121 61 69
0.0033373246 -0.14084718 0.51600003 139 99 104
0.0039184648 -0.14112014 0.51700002 149 109 114
-0.061236799 -0.13972992 0.514 106 20 29
-0.060547438 -0.13945808 0.51300001 105 19 28
-0.059977207 -0.13945808 0.51300001 112 14 23
-0.059406981 -0.13945808 0.51300001 111 13 22
-0.058722064 -0.13918622 0.51200002 116 7 13
-0.058152948 -0.13918622 0.51200002 116 7 13
-0.057471368 -0.13891438 0.51100004 124 3 13
-0.056903366 -0.13891438 0.51100004 125 4 14
-0.056225117 -0.13864253 0.51000005 132 7 16
-0.055658225 -0.13864253 0.51000005 133 8 17
-0.054983307 -0.13837068 0.509 137 6 15
-0.054417528 -0.13837068 0.509 136 5 14
-0.053745948 -0.13809884 0.50800002 138 4 11
-0.053181279 -0.13809884 0.50800002 138 4 11
-0.052513037 -0.13782698 0.50700003 139 3 9
-0.051847018 -0.13755514 0.50600004 147 6 11
-0.051183213 -0.13728328 0.505 147 6 11
-0.050621882 -0.13728328 0.505 150 7 13
-0.049961418 -0.13701144 0.50400001 151 8 14
-0.049401198 -0.13701144 0.50400001 153 6 11
-0.048744068 -0.1367396 0.50300002 153 6 11
-0.048184957 -0.1367396 0.50300002 153 6 11
-0.047625847 -0.1367396 0.50300002 153 6 11
-0.047066737 -0.1367396 0.50300002 157 4 11
-0.046415165 -0.13646774 0.50200003 159 6 13
-0.045857165 -0.13646774 0.50200003 160 5 13
-0.045299169 -0.13646774 0.50200003 160 5 13
-0.044741169 -0.13646774 0.50200003 162 4 13
-0.044183165 -0.13646774 0.50200003 162 4 13
-0.043625165 -0.13646774 0.50200003 163 5 14
-0.042981375 -0.1361959 0.50100005 164 6 15
-0.042424489 -0.1361959 0.50100005 165 7 16
-0.041867603 -0.1361959 0.50100005 167 9 18
-0.041310713 -0.1361959 0.50100005 168 10 19
-0.040753826 -0.1361959 0.50100005 171 13 22
-0.040196937 -0.1361959 0.50100005 172 19 28
-0.03964005 -0.1361959 0.50100005 175 21 33
-0.039005149 -0.13592404 0.5 176 22 34
-0.038449373 -0.13592404 0.5 176 22 36
-0.037893597 -0.13592404 0.5 175 21 35
-0.037337821 -0.13592404 0.5 172 20 36
-0.036782045 -0.13592404 0.5 171 19 35
-0.036226269 -0.13592404 0.5 171 19 37
-0.035599153 -0.1356522 0.49900001 173 21 39
-0.035044488 -0.1356522 0.49900001 176 26 48
-0.034489825 -0.1356522 0.49900001 178 28 50
-0.033935159 -0.1356522 0.49900001 178 29 53
-0.033380494 -0.1356522 0.49900001 178 29 53
-0.032825831 -0.1356522 0.49900001 178 29 53
-0.032271165 -0.1356522 0.49900001 177 28 52
-0.031652942 -0.13538036 0.49800003 177 28 52
-0.031099387 -0.13538036 0.49800003 178 29 53
-0.030545834 -0.13538036 0.49800003 178 29 53
-0.029992281 -0.13538036 0.49800003 177 28 52
-0.029438728 -0.13538036 0.49800003 176 27 51
-0.028885175 -0.13538036 0.49800003 174 25 49
-0.028331622 -0.13538036 0.49800003 189 39 61
-0.027778069 -0.13538036 0.49800003 176 26 48
-0.027224516 -0.13538036 0.49800003 171 16 35
-0.026670963 -0.13538036 0.49800003 171 16 35
-0.026117411 -0.13538036 0.49800003 171 16 33
-0.025615189 -0.1356522 0.49900001 172 17 34
-0.025060523 -0.1356522 0.49900001 173 19 33
-0.024505859 -0.1356522 0.49900001 174 20 34
-0.023951193 -0.1356522 0.49900001 169 15 27
-0.023396529 -0.1356522 0.49900001 167 13 25
-0.022841865 -0.1356522 0.49900001 169 15 27
-0.022331864 -0.13592404 0.5 170 14 27
-0.021776088 -0.13592404 0.5 170 14 27
-0.021220312 -0.13592404 0.5 170 15 25
-0.020664535 -0.13592404 0.5 168 13 23
-0.020108759 -0.13592404 0.5 167 12 20
-0.019552983 -0.13592404 0.5 165 10 18
-0.019035203 -0.1361959 0.50100005 166 7 14
-0.018478315 -0.1361959 0.50100005 166 7 14
-0.017921425 -0.1361959 0.50100005 165 6 13
-0.017364539 -0.1361959 0.50100005 164 5 12
-0.016807651 -0.1361959 0.50100005 168 3 12
-0.016250763 -0.1361959 0.50100005 168 3 12
-0.015693875 -0.1361959 0.50100005 168 3 12
-0.015136988 -0.1361959 0.50100005 168 3 12
-0.0145801 -0.1361959 0.50100005 169 3 10
-0.014023213 -0.1361959 0.50100005 170 4 11
-0.013493204 -0.13646774 0.50200003 171 5 12
-0.012935204 -0.13646774 0.50200003 169 3 10
-0.012377204 -0.13646774 0.50200003 169 3 10
-0.011819205 -0.13646774 0.50200003 169 3 10
-0.011261206 -0.13646774 0.50200003 169 3 10
-0.010724528 -0.1367396 0.50300002 169 3 10
-0.010165417 -0.1367396 0.50300002 168 2 9
-0.0096063055 -0.1367396 0.50300002 168 2 9
-0.009065181 -0.13701144 0.50400001 168 2 9
-0.0085049579 -0.13701144 0.50400001 168 2 9
-0.0079604993 -0.13728328 0.505 167 1 8
-0.0073991651 -0.13728328 0.505 167 1 8
-0.0068513723 -0.13755514 0.50600004 165 1 7
-0.006288927 -0.13755514 0.50600004 163 0 5
-0.0057377983 -0.13782698 0.50700003 161 0 5
-0.0051844465 -0.13809884 0.50800002 160 0 4
-0.004628872 -0.13837068 0.509 157 0 3
-0.0040630917 -0.13837068 0.509 157 0 3
-0.0035041827 -0.13864253 0.51000005 153 0 0
-0.0029430503 -0.13891438 0.51100004 153 0 0
-0.002375047 -0.13891438 0.51100004 152 0 0
-0.00181058 -0.13918622 0.51200002 152 0 0
-0.0012414651 -0.13918622 0.51200002 146 5 8
-0.00067235029 -0.13918622 0.51200002 151 10 13
-0.00010343707 -0.13945808 0.51300001 139 18 28
0.00046678935 -0.13945808 0.51300001 144 23 33
0.0010370157 -0.13945808 0.51300001 123 34 44
0.0016103751 -0.13972992 0.514 123 34 44
0.0021817132 -0.13972992 0.514 135 71 80
0.0027584073 -0.14000177 0.51500005 131 67 76
0.0033373246 -0.14027362 0.51600003 142 94 102
0.0039260439 -0.14081731 0.51800001 129 81 89
0.004501828 -0.14081731 0.51800001 159 142 144
0.0050874148 -0.14108917 0.51900005 123 106 108
-0.061928391 -0.13942932 0.51500005 95 24 31
-0.061236799 -0.13915856 0.514 105 19 26
-0.060665462 -0.13915856 0.514 105 19 26
-0.059977207 -0.13888784 0.51300001 112 15 21
-0.059406981 -0.13888784 0.51300001 111 14 20
-0.058722064 -0.1386171 0.51200002 118 11 16
-0.058152948 -0.1386171 0.51200002 118 11 16
-0.057471368 -0.13834637 0.51100004 127 11 17
-0.056903366 -0.13834637 0.51100004 126 10 16
-0.056225117 -0.13807563 0.51000005 134 11 19
-0.055658225 -0.13807563 0.51000005 133 10 18
-0.054983307 -0.13780488 0.509 137 6 15
-0.054417528 -0.13780488 0.509 136 5 14
-0.053745948 -0.13753416 0.50800002 140 6 13
-0.053076595 -0.13726342 0.50700003 141 7 14
-0.052513037 -0.13726342 0.50700003 141 5 11
-0.051847018 -0.13699269 0.50600004 144 6 10
-0.051183213 -0.13672194 0.505 145 7 11
-0.050621882 -0.13672194 0.505 150 7 13
-0.049961418 -0.1364512 0.50400001 151 8 14
-0.049401198 -0.1364512 0.50400001 154 7 12
-0.048744068 -0.13618048 0.50300002 154 7 12
-0.048184957 -0.13618048 0.50300002 156 6 12
-0.047625847 -0.13618048 0.50300002 157 7 13
-0.047066737 -0.13618048 0.50300002 158 5 12
-0.046507627 -0.13618048 0.50300002 158 5 12
-0.045857165 -0.13590974 0.50200003 159 4 12
-0.045299169 -0.13590974 0.50200003 159 4 12
-0.044741169 -0.13590974 0.50200003 161 3 12
-0.044183165 -0.13590974 0.50200003 162 4 13
-0.043625165 -0.13590974 0.50200003 164 6 15
-0.043067168 -0.13590974 0.50200003 165 7 16
-0.042424489 -0.13563901 0.50100005 165 7 16
-0.041867603 -0.13563901 0.50100005 168 10 19
-0.041310713 -0.13563901 0.50100005 170 12 21
-0.040753826 -0.13563901 0.50100005 171 13 22
-0.040196937 -0.13563901 0.50100005 170 15 23
-0.03964005 -0.13563901 0.50100005 172 17 25
-0.039005149 -0.13536826 0.5 174 21 30
-0.038449373 -0.13536826 0.5 175 21 33
-0.037893597 -0.13536826 0.5 176 22 34
-0.037337821 -0.13536826 0.5 176 22 36
-0.036782045 -0.13536826 0.5 175 21 35
-0.036226269 -0.13536826 0.5 173 21 39
-0.035670493 -0.13536826 0.5 173 21 39
-0.035114717 -0.13536826 0.5 176 26 50
-0.034489825 -0.13509752 0.49900001 177 27 51
-0.030545834 -0.13482679 0.49800003 178 29 53
-0.029992281 -0.13482679 0.49800003 177 28 52
-0.029438728 -0.13482679 0.49800003 176 27 51
-0.028885175 -0.13482679 0.49800003 173 24 48
-0.028331622 -0.13482679 0.49800003 171 22 41
-0.027778069 -0.13482679 0.49800003 154 5 24
-0.027224516 -0.13482679 0.49800003 171 16 35
-0.026670963 -0.13482679 0.49800003 172 17 36
-0.026169853 -0.13509752 0.49900001 172 17 34
-0.025615189 -0.13509752 0.49900001 172 17 34
-0.025060523 -0.13509752 0.49900001 173 18 35
-0.024505859 -0.13509752 0.49900001 173 18 35
-0.023951193 -0.13509752 0.49900001 169 15 29
-0.023396529 -0.13509752 0.49900001 169 15 29
-0.02288764 -0.13536826 0.5 169 15 29
-0.022331864 -0.13536826 0.5 170 14 27
-0.021776088 -0.13536826 0.5 172 16 29
-0.021220312 -0.13536826 0.5 170 15 25
-0.020664535 -0.13536826 0.5 169 14 24
-0.020108759 -0.13536826 0.5 168 13 21
-0.019552983 -0.13536826 0.5 167 12 20
-0.019035203 -0.13563901 0.50100005 166 7 16
-0.018478315 -0.13563901 0.50100005 164 5 14
-0.017921425 -0.13563901 0.50100005 166 4 12
-0.017364539 -0.13563901 0.50100005 166 4 12
-0.016807651 -0.13563901 0.50100005 168 3 12
-0.016250763 -0.13563901 0.50100005 168 3 12
-0.015693875 -0.13563901 0.50100005 168 3 12
-0.015136988 -0.13563901 0.50100005 168 3 12
-0.014609202 -0.13590974 0.50200003 169 2 12
-0.014051203 -0.13590974 0.50200003 169 2 12
-0.013493204 -0.13590974 0.50200003 169 2 12
-0.012935204 -0.13590974 0.50200003 169 2 12
-0.012377204 -0.13590974 0.50200003 169 2 12
-0.011819205 -0.13590974 0.50200003 169 2 12
-0.011283638 -0.13618048 0.50300002 168 1 11
-0.010724528 -0.13618048 0.50300002 168 1 11
-0.010165417 -0.13618048 0.50300002 168 1 11
-0.0096063055 -0.13618048 0.50300002 168 1 11
-0.009065181 -0.1364512 0.50400001 168 2 9
-0.0085049579 -0.1364512 0.50400001 167 1 8
-0.0079604993 -0.13672194 0.505 167 1 8
-0.0073991651 -0.13672194 0.505 167 1 8
-0.0068513723 -0.13699269 0.50600004 165 1 7
-0.0063013555 -0.13726342 0.50700003 163 0 5
-0.0057377983 -0.13726342 0.50700003 161 0 5
-0.0051844465 -0.13753416 0.50800002 160 0 4
-0.004628872 -0.13780488 0.509 157 0 1
-0.0040710745 -0.13807563 0.51000005 156 0 0
-0.0035041827 -0.13807563 0.51000005 153 0 0
-0.0029430503 -0.13834637 0.51100004 152 0 0
-0.002375047 -0.13834637 0.51100004 151 0 0
-0.00181058 -0.1386171 0.51200002 152 0 0
-0.0012414651 -0.1386171 0.51200002 143 2 3
-0.00067235029 -0.1386171 0.51200002 142 1 2
-0.00010343707 -0.13888784 0.51300001 131 8 16
0.00046678935 -0.13888784 0.51300001 139 16 24
0.0010390371 -0.13915856 0.514 124 33 44
0.0016103751 -0.13915856 0.514 131 40 51
0.002185958 -0.13942932 0.51500005 144 75 86
0.0027637633 -0.13970006 0.51600003 135 66 77
0.0033437922 -0.13997078 0.51700002 122 72 78
0.0039260439 -0.14024152 0.51800001 124 74 80
0.0045105191 -0.14051227 0.51900005 154 132 134
0.0050972169 -0.140783 0.52000004 120 98 100
-0.06204864 -0.13912649 0.51600003 93 22 29
-0.061355941 -0.13885687 0.51500005 105 16 22
-0.060665462 -0.13858724 0.514 105 16 22
-0.060094118 -0.13858724 0.514 112 15 19
-0.059406981 -0.13831761 0.51300001 111 14 18
-0.058836754 -0.13831761 0.51300001 119 12 17
-0.058152948 -0.13804799 0.51200002 120 13 18
-0.057471368 -0.13777837 0.51100004 126 13 18
-0.056903366 -0.13777837 0.51100004 127 14 19
-0.056225117 -0.13750875 0.51000005 134 11 17
-0.055658225 -0.13750875 0.51000005 132 9 15
-0.054983307 -0.13723911 0.509 135 4 13
-0.054310616 -0.13696949 0.50800002 135 4 13
-0.053745948 -0.13696949 0.50800002 139 5 12
-0.053076595 -0.13669987 0.50700003 141 7 14
-0.052513037 -0.13669987 0.50700003 141 5 11
-0.051847018 -0.13643025 0.50600004 145 4 9
-0.05128457 -0.13643025 0.50600004 146 5 10
-0.050621882 -0.13616061 0.505 148 5 11
-0.050060548 -0.13616061 0.505 148 5 11
-0.049401198 -0.13589099 0.50400001 153 6 11
-0.048840974 -0.13589099 0.50400001 154 7 12
-0.048184957 -0.13562137 0.50300002 154 7 12
-0.047625847 -0.13562137 0.50300002 155 8 13
-0.047066737 -0.13562137 0.50300002 156 6 12
-0.046507627 -0.13562137 0.50300002 156 6 12
-0.045948513 -0.13562137 0.50300002 158 5 12
-0.045389403 -0.13562137 0.50300002 158 5 12
-0.044741169 -0.13535175 0.50200003 161 3 12
-0.044183165 -0.13535175 0.50200003 162 4 13
-0.043625165 -0.13535175 0.50200003 163 5 14
-0.043067168 -0.13535175 0.50200003 165 7 16
-0.042424489 -0.13508213 0.50100005 165 7 16
-0.041867603 -0.13508213 0.50100005 168 10 19
-0.041310713 -0.13508213 0.50100005 169 11 20
-0.040753826 -0.13508213 0.50100005 171 13 22
-0.040196937 -0.13508213 0.50100005 169 14 24
-0.03964005 -0.13508213 0.50100005 170 15 25
-0.039005149 -0.13481249 0.5 176 23 32
-0.038449373 -0.13481249 0.5 176 25 36
-0.037893597 -0.13481249 0.5 177 26 37
-0.037337821 -0.13481249 0.5 175 26 41
-0.036782045 -0.13481249 0.5 174 25 40
-0.036226269 -0.13481249 0.5 171 22 39
-0.035670493 -0.13481249 0.5 171 22 39
-0.035114717 -0.13481249 0.5 173 24 46
-0.034558941 -0.13481249 0.5 173 24 46
-0.034003165 -0.13481249 0.5 174 25 49
-0.033380494 -0.13454287 0.49900001 177 28 52
-0.032825831 -0.13454287 0.49900001 177 28 52
-0.032271165 -0.13454287 0.49900001 174 25 49
-0.031716499 -0.13454287 0.49900001 172 26 49
-0.031161835 -0.13454287 0.49900001 174 28 51
-0.030607169 -0.13454287 0.49900001 176 30 53
-0.030052505 -0.13454287 0.49900001 173 27 50
-0.029438728 -0.13427325 0.49800003 173 24 46
-0.028885175 -0.13427325 0.49800003 171 22 44
-0.028388511 -0.13454287 0.49900001 167 18 35
-0.027833847 -0.13454287 0.49900001 161 12 29
-0.027279183 -0.13454287 0.49900001 172 17 36
-0.026724519 -0.13454287 0.49900001 171 16 35
-0.026169853 -0.13454287 0.49900001 172 17 34
-0.025615189 -0.13454287 0.49900001 172 17 34
-0.025060523 -0.13454287 0.49900001 172 17 34
-0.024505859 -0.13454287 0.49900001 171 16 33
-0.023999192 -0.13481249 0.5 169 15 29
-0.023443416 -0.13481249 0.5 171 17 31
-0.02288764 -0.13481249 0.5 171 17 31
-0.022331864 -0.13481249 0.5 171 17 31
-0.021776088 -0.13481249 0.5 171 17 31
-0.021220312 -0.13481249 0.5 170 14 27
-0.020664535 -0.13481249 0.5 169 13 26
-0.020108759 -0.13481249 0.5 168 13 23
-0.019552983 -0.13481249 0.5 167 12 22
-0.019035203 -0.13508213 0.50100005 166 7 14
-0.018478315 -0.13508213 0.50100005 165 6 13
-0.017921425 -0.13508213 0.50100005 168 6 14
-0.017364539 -0.13508213 0.50100005 167 5 13
-0.016807651 -0.13508213 0.50100005 168 3 12
-0.016250763 -0.13508213 0.50100005 167 2 11
-0.015693875 -0.13508213 0.50100005 168 3 12
-0.015136988 -0.13508213 0.50100005 168 3 12
-0.014609202 -0.13535175 0.50200003 169 3 10
-0.014051203 -0.13535175 0.50200003 169 3 10
-0.013493204 -0.13535175 0.50200003 169 3 10
-0.012935204 -0.13535175 0.50200003 169 3 10
-0.012377204 -0.13535175 0.50200003 169 3 10
-0.011842749 -0.13562137 0.50300002 169 3 10
-0.011283638 -0.13562137 0.50300002 169 3 10
-0.010724528 -0.13562137 0.50300002 168 2 9
-0.010165417 -0.13562137 0.50300002 168 2 9
-0.0096254041 -0.13589099 0.50400001 167 1 8
-0.009065181 -0.13589099 0.50400001 167 1 8
-0.0085218325 -0.13616061 0.505 167 1 8
-0.0079604993 -0.13616061 0.505 165 1 7
-0.0074138176 -0.13643025 0.50600004 165 1 7
-0.0068513723 -0.13643025 0.50600004 165 1 7
-0.0063013555 -0.13669987 0.50700003 163 0 5
-0.0057377983 -0.13669987 0.50700003 160 0 2
-0.0051844465 -0.13696949 0.50800002 159 0 1
-0.004628872 -0.13723911 0.509 157 0 1
-0.0040710745 -0.13750875 0.51000005 156 0 0
-0.0035041827 -0.13750875 0.51000005 153 0 0
-0.0029430503 -0.13777837 0.51100004 152 0 0
-0.002375047 -0.13777837 0.51100004 151 0 0
-0.00181058 -0.13804799 0.51200002 151 0 0
-0.0012414651 -0.13804799 0.51200002 143 0 2
-0.00067235029 -0.13804799 0.51200002 143 0 2
-0.00010343707 -0.13831761 0.51300001 131 6 15
0.00046678935 -0.13831761 0.51300001 137 12 21
0.0010390371 -0.13858724 0.514 125 28 41
0.0016135082 -0.13885687 0.51500005 141 44 57
0.002185958 -0.13885687 0.51500005 136 65 74
0.0027691193 -0.13939612 0.51700002 130 59 68
0.0033502597 -0.13966574 0.51800001 105 53 60
0.0039336234 -0.13993537 0.51900005 124 72 79
0.0045192097 -0.140205 0.52000004 149 122 125
-0.061355941 -0.13828442 0.51500005 103 17 22
-0.060783494 -0.13828442 0.51500005 101 15 20
-0.060094118 -0.1380159 0.514 109 12 16
-0.059522782 -0.1380159 0.514 109 12 16
-0.058722064 -0.13747887 0.51200002 116 12 16
-0.058152948 -0.13747887 0.51200002 117 13 17
-0.057471368 -0.13721037 0.51100004 127 8 15
-0.056903366 -0.13721037 0.51100004 127 8 15
-0.056225117 -0.13694185 0.51000005 131 6 13
-0.055549085 -0.13667333 0.509 131 6 13
-0.054983307 -0.13667333 0.509 135 5 11
-0.054310616 -0.13640481 0.50800002 135 5 11
-0.053745948 -0.13640481 0.50800002 138 4 9
-0.053076595 -0.13613631 0.50700003 139 5 10
-0.052513037 -0.13613631 0.50700003 141 5 11
-0.051847018 -0.1358678 0.50600004 143 5 9
-0.05128457 -0.1358678 0.50600004 143 5 9
-0.050621882 -0.13559927 0.505 147 4 8
-0.050060548 -0.13559927 0.505 147 4 8
-0.049401198 -0.13533077 0.50400001 150 4 9
-0.048840974 -0.13533077 0.50400001 152 6 11
-0.048280749 -0.13533077 0.50400001 153 7 12
-0.047720529 -0.13533077 0.50400001 153 7 12
-0.047066737 -0.13506225 0.50300002 153 6 11
-0.046507627 -0.13506225 0.50300002 153 6 11
-0.045948513 -0.13506225 0.50300002 155 5 11
-0.045389403 -0.13506225 0.50300002 156 6 12
-0.044830292 -0.13506225 0.50300002 158 5 12
-0.044183165 -0.13479374 0.50200003 160 7 14
-0.043625165 -0.13479374 0.50200003 162 7 15
-0.043067168 -0.13479374 0.50200003 163 8 16
-0.042509168 -0.13479374 0.50200003 165 7 16
-0.041867603 -0.13452522 0.50100005 167 9 18
-0.041310713 -0.13452522 0.50100005 168 10 19
-0.040753826 -0.13452522 0.50100005 168 10 19
-0.040196937 -0.13452522 0.50100005 166 11 21
-0.03964005 -0.13452522 0.50100005 170 15 25
-0.039083164 -0.13452522 0.50100005 178 25 34
-0.038449373 -0.13425671 0.5 178 27 38
-0.037893597 -0.13425671 0.5 177 26 37
-0.037337821 -0.13425671 0.5 176 25 38
-0.036782045 -0.13425671 0.5 176 25 38
-0.036226269 -0.13425671 0.5 172 23 40
-0.035670493 -0.13425671 0.5 171 22 39
-0.035114717 -0.13425671 0.5 171 23 42
-0.034558941 -0.13425671 0.5 173 25 44
-0.034003165 -0.13425671 0.5 175 26 50
-0.033447389 -0.13425671 0.5 175 26 50
-0.032891612 -0.13425671 0.5 174 25 49
-0.032271165 -0.1339882 0.49900001 173 24 48
-0.031716499 -0.1339882 0.49900001 173 24 48
-0.031161835 -0.1339882 0.49900001 174 25 49
-0.030607169 -0.1339882 0.49900001 174 25 49
-0.030052505 -0.1339882 0.49900001 174 25 49
-0.029497841 -0.1339882 0.49900001 174 25 47
-0.028943177 -0.1339882 0.49900001 173 24 46
-0.028388511 -0.1339882 0.49900001 170 21 40
-0.027833847 -0.1339882 0.49900001 168 19 38
-0.027279183 -0.1339882 0.49900001 170 18 36
-0.026724519 -0.1339882 0.49900001 171 19 37
-0.026169853 -0.1339882 0.49900001 170 18 34
-0.025615189 -0.1339882 0.49900001 167 15 31
-0.025110744 -0.13425671 0.5 169 14 31
-0.024554968 -0.13425671 0.5 171 16 33
-0.023999192 -0.13425671 0.5 171 16 33
-0.023443416 -0.13425671 0.5 171 16 33
-0.02288764 -0.13425671 0.5 172 18 32
-0.022331864 -0.13425671 0.5 172 18 32
-0.021776088 -0.13425671 0.5 172 18 32
-0.021220312 -0.13425671 0.5 170 14 27
-0.020664535 -0.13425671 0.5 169 13 26
-0.020108759 -0.13425671 0.5 169 14 24
-0.019552983 -0.13425671 0.5 167 12 22
-0.019035203 -0.13452522 0.50100005 165 7 16
-0.018478315 -0.13452522 0.50100005 165 7 16
-0.017921425 -0.13452522 0.50100005 166 7 14
-0.017364539 -0.13452522 0.50100005 166 7 14
-0.016807651 -0.13452522 0.50100005 167 5 13
-0.016250763 -0.13452522 0.50100005 167 5 13
-0.015725201 -0.13479374 0.50200003 168 3 12
-0.015167201 -0.13479374 0.50200003 168 3 12
-0.014609202 -0.13479374 0.50200003 168 4 10
-0.014051203 -0.13479374 0.50200003 168 4 10
-0.013493204 -0.13479374 0.50200003 169 3 10
-0.012935204 -0.13479374 0.50200003 170 4 11
-0.012377204 -0.13479374 0.50200003 171 5 12
-0.011842749 -0.13506225 0.50300002 171 5 12
-0.011283638 -0.13506225 0.50300002 170 4 11
-0.010724528 -0.13506225 0.50300002 168 2 9
-0.010185626 -0.13533077 0.50400001 168 2 9
-0.0096254041 -0.13533077 0.50400001 167 1 8
-0.0090831676 -0.13559927 0.505 166 2 8
-0.0085218325 -0.13559927 0.505 165 1 7
-0.0079762628 -0.1358678 0.50600004 165 1 7
-0.0074138176 -0.1358678 0.50600004 163 0 5
-0.0068513723 -0.1358678 0.50600004 161 0 5
-0.0063013555 -0.13613631 0.50700003 160 0 4
-0.0057491153 -0.13640481 0.50800002 157 0 1
-0.0051844465 -0.13640481 0.50800002 157 0 1
-0.004628872 -0.13667333 0.509 155 0 0
-0.0040630917 -0.13667333 0.509 155 0 0
-0.0035041827 -0.13694185 0.51000005 153 0 0
-0.0029430503 -0.13721037 0.51100004 152 0 0
-0.002375047 -0.13721037 0.51100004 149 0 0
-0.00181058 -0.13747887 0.51200002 149 0 0
-0.0012414651 -0.13747887 0.51200002 146 0 3
-0.00067366345 -0.13774738 0.51300001 146 0 3
-0.00010343707 -0.13774738 0.51300001 138 5 15
0.00046769925 -0.1380159 0.514 137 4 14
0.0010390371 -0.1380159 0.514 121 18 31
0.0016135082 -0.13828442 0.51500005 138 35 48
0.0021902025 -0.13855293 0.51600003 124 50 60
0.0027691193 -0.13882144 0.51700002 130 56 66
0.0033502597 -0.13908994 0.51800001 113 58 66
0.0039412025 -0.13962698 0.52000004 126 71 79
-0.06147508 -0.13797937 0.51600003 105 19 24
-0.060783494 -0.13771197 0.51500005 103 17 22
-0.06021104 -0.13771197 0.51500005 108 11 15
-0.059522782 -0.13744456 0.514 109 12 16
-0.058836754 -0.13717717 0.51300001 118 11 16
-0.058152948 -0.13690977 0.51200002 118 11 16
-0.057471368 -0.13664237 0.51100004 124 8 14
-0.05679201 -0.13637497 0.51000005 125 9 15
-0.056114867 -0.13610755 0.509 132 7 14
-0.055549085 -0.13610755 0.509 132 7 14
-0.054875284 -0.13584016 0.50800002 136 6 12
-0.054310616 -0.13584016 0.50800002 135 5 11
-0.05364015 -0.13557276 0.50700003 136 4 9
-0.053076595 -0.13557276 0.50700003 136 4 9
-0.052409463 -0.13530536 0.50600004 140 4 10
-0.051847018 -0.13530536 0.50600004 142 4 8
-0.05128457 -0.13530536 0.50600004 143 5 9
-0.050621882 -0.13503794 0.505 145 4 7
-0.050060548 -0.13503794 0.505 146 5 8
-0.049499214 -0.13503794 0.505 148 5 9
-0.048840974 -0.13477054 0.50400001 151 8 12
-0.048280749 -0.13477054 0.50400001 151 8 12
-0.047720529 -0.13477054 0.50400001 151 8 12
-0.047160305 -0.13477054 0.50400001 152 6 11
-0.046507627 -0.13450314 0.50300002 152 6 11
-0.045948513 -0.13450314 0.50300002 153 6 11
-0.045389403 -0.13450314 0.50300002 153 6 11
-0.044830292 -0.13450314 0.50300002 158 5 12
-0.044271179 -0.13450314 0.50300002 159 6 13
-0.043625165 -0.13423575 0.50200003 161 6 14
-0.043067168 -0.13423575 0.50200003 162 7 15
-0.042509168 -0.13423575 0.50200003 162 7 15
-0.041951168 -0.13423575 0.50200003 162 7 15
-0.041310713 -0.13396835 0.50100005 164 6 15
-0.040753826 -0.13396835 0.50100005 165 7 16
-0.040196937 -0.13396835 0.50100005 160 5 15
-0.03964005 -0.13396835 0.50100005 162 7 17
-0.039083164 -0.13396835 0.50100005 175 22 31
-0.038526274 -0.13396835 0.50100005 175 21 33
-0.037969388 -0.13396835 0.50100005 174 20 32
-0.037412502 -0.13396835 0.50100005 172 21 34
-0.036855612 -0.13396835 0.50100005 174 23 36
-0.036298726 -0.13396835 0.50100005 178 29 46
-0.035741836 -0.13396835 0.50100005 178 29 46
-0.03518495 -0.13396835 0.50100005 173 25 44
-0.034628063 -0.13396835 0.50100005 173 25 44
-0.034003165 -0.13370094 0.5 175 26 48
-0.033447389 -0.13370094 0.5 174 25 47
-0.032891612 -0.13370094 0.5 174 25 49
-0.032335836 -0.13370094 0.5 173 24 48
-0.03178006 -0.13370094 0.5 171 22 46
-0.031161835 -0.13343354 0.49900001 171 22 46
-0.030607169 -0.13343354 0.49900001 173 24 46
-0.030052505 -0.13343354 0.49900001 174 25 47
-0.029497841 -0.13343354 0.49900001 173 24 46
-0.028943177 -0.13343354 0.49900001 173 24 46
-0.028388511 -0.13343354 0.49900001 171 23 42
-0.027833847 -0.13343354 0.49900001 168 20 39
-0.027279183 -0.13343354 0.49900001 167 18 35
-0.026724519 -0.13343354 0.49900001 165 16 33
-0.026169853 -0.13343354 0.49900001 167 15 33
-0.025666522 -0.13370094 0.5 165 13 31
-0.025110744 -0.13370094 0.5 164 12 28
-0.024554968 -0.13370094 0.5 166 14 30
-0.023999192 -0.13370094 0.5 169 14 31
-0.023443416 -0.13370094 0.5 169 14 31
-0.02288764 -0.13370094 0.5 167 13 27
-0.022331864 -0.13370094 0.5 168 12 27
-0.021776088 -0.13370094 0.5 168 12 27
-0.021220312 -0.13370094 0.5 167 11 24
-0.020664535 -0.13370094 0.5 166 10 23
-0.020148979 -0.13396835 0.50100005 165 7 16
-0.019592091 -0.13396835 0.50100005 164 6 15
-0.019035203 -0.13396835 0.50100005 164 6 15
-0.018478315 -0.13396835 0.50100005 164 6 15
-0.017921425 -0.13396835 0.50100005 165 6 13
-0.017364539 -0.13396835 0.50100005 166 7 14
-0.016807651 -0.13396835 0.50100005 167 5 13
-0.016283199 -0.13423575 0.50200003 166 4 12
-0.015725201 -0.13423575 0.50200003 165 3 11
-0.015167201 -0.13423575 0.50200003 165 3 11
-0.014609202 -0.13423575 0.50200003 167 3 9
-0.014051203 -0.13423575 0.50200003 168 4 10
-0.013493204 -0.13423575 0.50200003 168 4 10
-0.012935204 -0.13423575 0.50200003 168 4 10
-0.012401859 -0.13450314 0.50300002 169 5 11
-0.011842749 -0.13450314 0.50300002 168 4 10
-0.011283638 -0.13450314 0.50300002 168 4 10
-0.010745849 -0.13477054 0.50400001 168 4 10
-0.010185626 -0.13477054 0.50400001 168 4 10
-0.0096254041 -0.13477054 0.50400001 166 2 8
-0.0090831676 -0.13503794 0.505 166 2 8
-0.0085218325 -0.13503794 0.505 165 1 7
-0.0079762628 -0.13530536 0.50600004 165 1 7
-0.0074138176 -0.13530536 0.50600004 163 0 5
-0.0068649123 -0.13557276 0.50700003 160 0 4
-0.0063013555 -0.13557276 0.50700003 159 0 3
-0.0057491153 -0.13584016 0.50800002 157 0 1
-0.0051844465 -0.13584016 0.50800002 157 0 1
-0.004628872 -0.13610755 0.509 155 0 0
-0.0040630917 -0.13610755 0.509 155 0 0
-0.0035041827 -0.13637497 0.51000005 152 0 0
-0.0029430503 -0.13664237 0.51100004 152 0 0
-0.002375047 -0.13664237 0.51100004 149 0 0
-0.00181058 -0.13690977 0.51200002 149 0 0
-0.0012414651 -0.13690977 0.51200002 146 0 3
-0.00067366345 -0.13717717 0.51300001 146 0 3
-0.0001036387 -0.13744456 0.514 139 5 12
0.00046769925 -0.13744456 0.514 138 4 11
0.0010410588 -0.13771197 0.51500005 125 16 31
0.0016166413 -0.13797937 0.51600003 135 26 41
0.002194447 -0.13824677 0.51700002 122 44 55
0.0027744754 -0.13851418 0.51800001 134 56 67
0.0033567278 -0.13878159 0.51900005 126 69 78
0.0039412025 -0.13904898 0.52000004 129 72 81
-0.062864922 -0.13793838 0.51800001 95 55 58
-0.062168889 -0.1376721 0.51700002 114 43 50
-0.06147508 -0.13740581 0.51600003 103 14 20
-0.060901519 -0.13740581 0.51600003 102 13 19
-0.059522782 -0.13687322 0.514 111 11 16
-0.058836754 -0.13660693 0.51300001 116 9 14
-0.058152948 -0.13634065 0.51200002 116 9 14
-0.057471368 -0.13607436 0.51100004 124 8 14
-0.05679201 -0.13580807 0.51000005 125 9 15
-0.056114867 -0.13554177 0.509 131 6 13
-0.055549085 -0.13554177 0.509 132 7 14
-0.054875284 -0.13527548 0.50800002 135 5 11
-0.054310616 -0.13527548 0.50800002 135 5 11
-0.05364015 -0.1350092 0.50700003 136 4 9
-0.053076595 -0.1350092 0.50700003 136 4 9
-0.052409463 -0.1347429 0.50600004 140 4 10
-0.051847018 -0.1347429 0.50600004 142 4 8
-0.05128457 -0.1347429 0.50600004 143 5 9
-0.050722126 -0.1347429 0.50600004 145 4 7
-0.050060548 -0.1344766 0.505 146 5 8
-0.049499214 -0.1344766 0.505 147 4 8
-0.04893788 -0.1344766 0.505 148 5 9
-0.048280749 -0.13421032 0.50400001 150 7 11
-0.047720529 -0.13421032 0.50400001 150 7 11
-0.047160305 -0.13421032 0.50400001 150 7 11
-0.046600085 -0.13421032 0.50400001 150 7 11
-0.045948513 -0.13394403 0.50300002 153 6 11
-0.045389403 -0.13394403 0.50300002 153 6 11
-0.044830292 -0.13394403 0.50300002 155 5 11
-0.044271179 -0.13394403 0.50300002 156 6 12
-0.043625165 -0.13367774 0.50200003 158 3 11
-0.043067168 -0.13367774 0.50200003 158 3 11
-0.042509168 -0.13367774 0.50200003 159 4 12
-0.041951168 -0.13367774 0.50200003 160 5 13
-0.041310713 -0.13341145 0.50100005 159 4 12
-0.040753826 -0.13341145 0.50100005 159 4 12
-0.040196937 -0.13341145 0.50100005 184 30 42
-0.03964005 -0.13341145 0.50100005 182 28 40
-0.039083164 -0.13341145 0.50100005 171 20 31
-0.038526274 -0.13341145 0.50100005 171 20 31
-0.037969388 -0.13341145 0.50100005 170 19 30
-0.037412502 -0.13341145 0.50100005 171 20 33
-0.036855612 -0.13341145 0.50100005 172 21 34
-0.036298726 -0.13341145 0.50100005 174 25 40
-0.035741836 -0.13341145 0.50100005 172 23 38
-0.03518495 -0.13341145 0.50100005 170 22 39
-0.034628063 -0.13341145 0.50100005 170 22 39
-0.034071174 -0.13341145 0.50100005 173 24 46
-0.033514287 -0.13341145 0.50100005 173 24 46
-0.032891612 -0.13314515 0.5 170 21 43
-0.032335836 -0.13314515 0.5 171 22 44
-0.03178006 -0.13314515 0.5 174 25 47
-0.031224282 -0.13314515 0.5 182 33 55
-0.030668506 -0.13314515 0.5 185 36 58
-0.03011273 -0.13314515 0.5 179 30 52
-0.029497841 -0.13287887 0.49900001 173 25 44
-0.028943177 -0.13287887 0.49900001 173 25 44
-0.028388511 -0.13287887 0.49900001 172 23 42
-0.027889626 -0.13314515 0.5 170 21 40
-0.02733385 -0.13314515 0.5 167 18 33
-0.026778074 -0.13314515 0.5 164 15 30
-0.026222298 -0.13314515 0.5 165 13 29
-0.025666522 -0.13314515 0.5 164 12 28
-0.025110744 -0.13314515 0.5 163 11 27
-0.024554968 -0.13314515 0.5 165 13 29
-0.023999192 -0.13314515 0.5 169 15 29
-0.023443416 -0.13314515 0.5 168 14 28
-0.02288764 -0.13314515 0.5 167 11 26
-0.022331864 -0.13314515 0.5 167 11 26
-0.021776088 -0.13314515 0.5 170 14 29
-0.021262754 -0.13341145 0.50100005 184 25 39
-0.020705866 -0.13341145 0.50100005 170 11 25
-0.020148979 -0.13341145 0.50100005 167 9 18
-0.019592091 -0.13341145 0.50100005 165 7 16
-0.019035203 -0.13341145 0.50100005 166 7 16
-0.018478315 -0.13341145 0.50100005 168 9 18
-0.017921425 -0.13341145 0.50100005 166 7 14
-0.017364539 -0.13341145 0.50100005 165 6 13
-0.016807651 -0.13341145 0.50100005 164 5 12
-0.016283199 -0.13367774 0.50200003 163 4 11
-0.015725201 -0.13367774 0.50200003 165 3 11
-0.015167201 -0.13367774 0.50200003 165 3 11
-0.014609202 -0.13367774 0.50200003 165 3 11
-0.014051203 -0.13367774 0.50200003 165 3 11
-0.013520082 -0.13394403 0.50300002 167 3 9
-0.012960971 -0.13394403 0.50300002 167 3 9
-0.012401859 -0.13394403 0.50300002 167 3 9
-0.011842749 -0.13394403 0.50300002 167 3 9
-0.011306071 -0.13421032 0.50400001 167 3 9
-0.010745849 -0.13421032 0.50400001 167 3 9
-0.010205835 -0.1344766 0.505 167 3 9
-0.0096445018 -0.1344766 0.505 167 3 9
-0.0090831676 -0.1344766 0.505 166 2 8
-0.008538709 -0.1347429 0.50600004 166 2 8
-0.0079762628 -0.1347429 0.50600004 163 2 7
-0.0074138176 -0.1347429 0.50600004 161 0 5
-0.0068649123 -0.1350092 0.50700003 160 0 4
-0.0063013555 -0.1350092 0.50700003 159 0 3
-0.0057491153 -0.13527548 0.50800002 157 0 1
-0.0051844465 -0.13527548 0.50800002 157 0 1
-0.004628872 -0.13554177 0.509 155 0 0
-0.0040630917 -0.13554177 0.509 155 0 0
-0.0035041827 -0.13580807 0.51000005 152 0 0
-0.0029430503 -0.13607436 0.51100004 151 0 0
-0.002375047 -0.13607436 0.51100004 149 0 0
-0.00181058 -0.13634065 0.51200002 149 0 0
-0.0012438899 -0.13660693 0.51300001 146 1 1
-0.00067366345 -0.13660693 0.51300001 146 1 1
-0.0001036387 -0.13687322 0.514 143 4 11
0.00046860921 -0.13713951 0.51500005 145 6 13
0.0010430802 -0.13740581 0.51600003 127 16 30
0.0016197743 -0.1376721 0.51700002 133 22 36
0.0021986915 -0.13793838 0.51800001 124 41 54
0.0027798319 -0.13820468 0.51900005 132 49 62
0.0033631953 -0.13847098 0.52000004 123 63 71
0.0039487816 -0.13873726 0.52100003 125 65 73
-0.062864922 -0.1373626 0.51800001 71 31 34
-0.062168889 -0.13709743 0.51700002 94 20 28
-0.061594214 -0.13709743 0.51700002 92 18 26
-0.060901519 -0.13683225 0.51600003 101 12 18
-0.05963859 -0.13656707 0.51500005 110 10 15
-0.058836754 -0.13603671 0.51300001 116 9 14
-0.058152948 -0.13577154 0.51200002 116 9 14
-0.057471368 -0.13550636 0.51100004 122 6 12
-0.05679201 -0.13524118 0.51000005 124 8 14
-0.056114867 -0.134976 0.509 130 5 12
-0.055549085 -0.134976 0.509 130 5 12
-0.054875284 -0.13471082 0.50800002 134 4 10
-0.054203708 -0.13444564 0.50700003 135 5 11
-0.05364015 -0.13444564 0.50700003 136 4 9
-0.053076595 -0.13444564 0.50700003 136 4 9
-0.052409463 -0.13418047 0.50600004 139 5 10
-0.051847018 -0.13418047 0.50600004 142 4 8
-0.05128457 -0.13418047 0.50600004 142 4 8
-0.050722126 -0.13418047 0.50600004 144 3 6
-0.050060548 -0.13391528 0.505 145 4 7
-0.049499214 -0.13391528 0.505 145 4 7
-0.04893788 -0.13391528 0.505 146 5 8
-0.048376545 -0.13391528 0.505 147 4 6
-0.047720529 -0.13365011 0.50400001 147 4 6
-0.047160305 -0.13365011 0.50400001 147 4 6
-0.046600085 -0.13365011 0.50400001 148 5 7
-0.046039861 -0.13365011 0.50400001 150 4 7
-0.045389403 -0.13338493 0.50300002 152 6 9
-0.044830292 -0.13338493 0.50300002 155 5 11
-0.044271179 -0.13338493 0.50300002 155 5 11
-0.043625165 -0.13311975 0.50200003 157 4 11
-0.043067168 -0.13311975 0.50200003 157 4 11
-0.042509168 -0.13311975 0.50200003 159 4 12
-0.041951168 -0.13311975 0.50200003 160 5 13
-0.041393168 -0.13311975 0.50200003 161 6 14
-0.040753826 -0.13285458 0.50100005 168 13 21
-0.040196937 -0.13285458 0.50100005 189 35 47
-0.03964005 -0.13285458 0.50100005 186 32 44
-0.039083164 -0.13285458 0.50100005 169 21 31
-0.038526274 -0.13285458 0.50100005 169 21 31
-0.037969388 -0.13285458 0.50100005 168 20 30
-0.037412502 -0.13285458 0.50100005 169 21 31
-0.036855612 -0.13285458 0.50100005 171 23 33
-0.036298726 -0.13285458 0.50100005 172 23 38
-0.035741836 -0.13285458 0.50100005 172 23 38
-0.03518495 -0.13285458 0.50100005 171 22 37
-0.034628063 -0.13285458 0.50100005 171 22 37
-0.034071174 -0.13285458 0.50100005 170 22 41
-0.033514287 -0.13285458 0.50100005 168 20 39
-0.032891612 -0.13258938 0.5 167 19 38
-0.032335836 -0.13258938 0.5 167 19 38
-0.03178006 -0.13258938 0.5 172 22 44
-0.031224282 -0.13258938 0.5 179 29 51
-0.030668506 -0.13258938 0.5 180 30 52
-0.03011273 -0.13258938 0.5 177 27 49
-0.029556954 -0.13258938 0.5 172 23 42
-0.029001178 -0.13258938 0.5 170 21 40
-0.028445402 -0.13258938 0.5 169 20 39
-0.027889626 -0.13258938 0.5 169 20 39
-0.02733385 -0.13258938 0.5 168 19 36
-0.026778074 -0.13258938 0.5 165 16 33
-0.026222298 -0.13258938 0.5 165 13 29
-0.025666522 -0.13258938 0.5 164 12 28
-0.025110744 -0.13258938 0.5 166 9 27
-0.024554968 -0.13258938 0.5 167 10 28
-0.023999192 -0.13258938 0.5 167 10 28
-0.023443416 -0.13258938 0.5 167 10 28
-0.02288764 -0.13258938 0.5 170 11 27
-0.02237653 -0.13285458 0.50100005 170 11 27
-0.021819642 -0.13285458 0.50100005 172 13 29
-0.021262754 -0.13285458 0.50100005 175 16 30
-0.020705866 -0.13285458 0.50100005 170 11 25
-0.020148979 -0.13285458 0.50100005 165 7 16
-0.019592091 -0.13285458 0.50100005 165 7 16
-0.019035203 -0.13285458 0.50100005 168 9 16
-0.018478315 -0.13285458 0.50100005 168 9 16
-0.017921425 -0.13285458 0.50100005 166 7 14
-0.017399197 -0.13311975 0.50200003 164 5 12
-0.016841199 -0.13311975 0.50200003 163 4 11
-0.016283199 -0.13311975 0.50200003 163 4 11
-0.015725201 -0.13311975 0.50200003 165 3 11
-0.015167201 -0.13311975 0.50200003 165 3 11
-0.014638304 -0.13338493 0.50300002 165 4 9
-0.014051203 -0.13311975 0.50200003 165 4 9
-0.013520082 -0.13338493 0.50300002 167 3 9
-0.012960971 -0.13338493 0.50300002 167 3 9
-0.012401859 -0.13338493 0.50300002 167 3 9
-0.011866293 -0.13365011 0.50400001 167 3 9
-0.011306071 -0.13365011 0.50400001 167 3 9
-0.010745849 -0.13365011 0.50400001 167 3 9
-0.010205835 -0.13391528 0.505 166 2 8
-0.0096445018 -0.13391528 0.505 166 2 8
-0.0091011552 -0.13418047 0.50600004 164 3 8
-0.008538709 -0.13418047 0.50600004 163 2 7
-0.0079762628 -0.13418047 0.50600004 163 2 7
-0.0074284696 -0.13444564 0.50700003 161 0 5
-0.0068649123 -0.13444564 0.50700003 158 0 4
-0.0063013555 -0.13444564 0.50700003 158 0 4
-0.0057491153 -0.13471082 0.50800002 157 0 2
-0.0051844465 -0.13471082 0.50800002 156 0 1
-0.004628872 -0.134976 0.509 155 0 0
-0.0040630917 -0.134976 0.509 155 0 0
-0.0035041827 -0.13524118 0.51000005 151 0 0
-0.0029430503 -0.13550636 0.51100004 151 0 0
-0.002375047 -0.13550636 0.51100004 149 0 0
-0.00181058 -0.13577154 0.51200002 149 0 0
-0.0012438899 -0.13603671 0.51300001 146 1 1
-0.00067497662 -0.13630189 0.514 146 1 1
-0.00010384034 -0.13656707 0.51500005 141 3 7
0.00046951912 -0.13683225 0.51600003 143 5 9
0.0010451017 -0.13709743 0.51700002 131 17 29
0.0016229072 -0.1373626 0.51800001 141 27 39
0.0022029362 -0.1376278 0.51900005 129 42 54
0.0027851879 -0.13789298 0.52000004 132 45 57
0.0033696629 -0.13815814 0.52100003 115 53 61
0.0039563607 -0.13842332 0.52200001 117 55 63
-0.062864922 -0.13678682 0.51800001 70 27 29
-0.062168889 -0.13652276 0.51700002 96 22 30
-0.061594214 -0.13652276 0.51700002 95 21 29
-0.060901519 -0.13625869 0.51600003 100 14 19
-0.060327955 -0.13625869 0.51600003 107 10 14
-0.05963859 -0.13599463 0.51500005 108 11 15
-0.058152948 -0.13520241 0.51200002 115 8 13
-0.057471368 -0.13493834 0.51100004 121 5 11
-0.05679201 -0.13467428 0.51000005 122 6 12
-0.056114867 -0.1344102 0.509 130 5 12
-0.055549085 -0.1344102 0.509 130 5 12
-0.054875284 -0.13414614 0.50800002 134 3 12
-0.054203708 -0.13388208 0.50700003 134 3 12
-0.05364015 -0.13388208 0.50700003 135 3 10
-0.053076595 -0.13388208 0.50700003 136 4 11
-0.052409463 -0.13361801 0.50600004 139 5 10
-0.051847018 -0.13361801 0.50600004 142 4 8
-0.05128457 -0.13361801 0.50600004 142 4 8
-0.050722126 -0.13361801 0.50600004 144 3 6
-0.050159682 -0.13361801 0.50600004 145 4 7
-0.049499214 -0.13335393 0.505 145 4 7
-0.04893788 -0.13335393 0.505 145 4 7
-0.048376545 -0.13335393 0.505 146 3 5
-0.047815211 -0.13335393 0.505 148 5 7
-0.047160305 -0.13308987 0.50400001 150 7 9
-0.046600085 -0.13308987 0.50400001 148 5 7
-0.046039861 -0.13308987 0.50400001 150 4 7
-0.045389403 -0.13282581 0.50300002 150 4 7
-0.044830292 -0.13282581 0.50300002 155 5 9
-0.044271179 -0.13282581 0.50300002 156 6 10
-0.043712068 -0.13282581 0.50300002 157 4 9
-0.043067168 -0.13256174 0.50200003 157 4 9
-0.042509168 -0.13256174 0.50200003 158 3 9
-0.041951168 -0.13256174 0.50200003 160 5 11
-0.041393168 -0.13256174 0.50200003 161 6 14
-0.040835168 -0.13256174 0.50200003 165 10 18
-0.040196937 -0.13229768 0.50100005 166 12 24
-0.03964005 -0.13229768 0.50100005 166 12 24
-0.039083164 -0.13229768 0.50100005 169 22 29
-0.038526274 -0.13229768 0.50100005 169 22 29
-0.037969388 -0.13229768 0.50100005 168 21 28
-0.037412502 -0.13229768 0.50100005 169 22 29
-0.036855612 -0.13229768 0.50100005 170 23 30
-0.036298726 -0.13229768 0.50100005 172 24 36
-0.035741836 -0.13229768 0.50100005 172 24 36
-0.03518495 -0.13229768 0.50100005 172 23 38
-0.034628063 -0.13229768 0.50100005 172 23 38
-0.034071174 -0.13229768 0.50100005 172 23 42
-0.033514287 -0.13229768 0.50100005 168 19 38
-0.032957397 -0.13229768 0.50100005 165 16 35
-0.032400511 -0.13229768 0.50100005 167 18 37
-0.031843625 -0.13229768 0.50100005 168 18 40
-0.031224282 -0.1320336 0.5 163 13 35
-0.030668506 -0.1320336 0.5 162 12 34
-0.03011273 -0.1320336 0.5 168 18 40
-0.029556954 -0.1320336 0.5 171 22 41
-0.029001178 -0.1320336 0.5 170 21 40
-0.028445402 -0.1320336 0.5 168 19 38
-0.027889626 -0.1320336 0.5 167 18 37
-0.02733385 -0.1320336 0.5 167 15 33
-0.026778074 -0.1320336 0.5 166 14 32
-0.026222298 -0.1320336 0.5 167 12 29
-0.025666522 -0.1320336 0.5 166 11 28
-0.025110744 -0.1320336 0.5 168 11 29
-0.024554968 -0.1320336 0.5 168 11 29
-0.023999192 -0.1320336 0.5 170 10 26
-0.023443416 -0.1320336 0.5 169 9 25
-0.022933418 -0.13229768 0.50100005 169 9 25
-0.02237653 -0.13229768 0.50100005 171 11 27
-0.021819642 -0.13229768 0.50100005 172 12 28
-0.021262754 -0.13229768 0.50100005 171 11 25
-0.020705866 -0.13229768 0.50100005 169 9 23
-0.020148979 -0.13229768 0.50100005 165 6 17
-0.019592091 -0.13229768 0.50100005 165 6 17
-0.019035203 -0.13229768 0.50100005 165 6 15
-0.018515198 -0.13256174 0.50200003 165 6 15
-0.017957198 -0.13256174 0.50200003 165 6 15
-0.017399197 -0.13256174 0.50200003 165 6 15
-0.016841199 -0.13256174 0.50200003 165 6 13
-0.016283199 -0.13256174 0.50200003 164 5 12
-0.015725201 -0.13256174 0.50200003 165 3 11
-0.015197414 -0.13282581 0.50300002 164 2 10
-0.014638304 -0.13282581 0.50300002 165 4 9
-0.014079193 -0.13282581 0.50300002 165 4 9
-0.013520082 -0.13282581 0.50300002 165 4 9
-0.012960971 -0.13282581 0.50300002 165 4 9
-0.012401859 -0.13282581 0.50300002 167 3 9
-0.011866293 -0.13308987 0.50400001 166 2 8
-0.011306071 -0.13308987 0.50400001 166 2 8
-0.010767169 -0.13335393 0.505 166 2 8
-0.010205835 -0.13335393 0.505 164 3 8
-0.0096445018 -0.13335393 0.505 164 3 8
-0.0091011552 -0.13361801 0.50600004 163 2 7
-0.008538709 -0.13361801 0.50600004 163 2 7
-0.0079920264 -0.13388208 0.50700003 161 0 5
-0.0074284696 -0.13388208 0.50700003 160 0 4
-0.0068649123 -0.13388208 0.50700003 158 0 4
-0.006313784 -0.13414614 0.50800002 158 0 4
-0.0057491153 -0.13414614 0.50800002 156 0 1
-0.0051844465 -0.13414614 0.50800002 156 0 1
-0.004628872 -0.1344102 0.509 153 0 0
-0.0040630917 -0.1344102 0.509 153 0 0
-0.0035041827 -0.13467428 0.51000005 151 0 0
-0.0029430503 -0.13493834 0.51100004 151 0 0
-0.0023796947 -0.13520241 0.51200002 149 0 0
-0.00181058 -0.13520241 0.51200002 149 0 0
-0.0012438899 -0.13546647 0.51300001 146 1 1
-0.00067497662 -0.13573053 0.514 146 1 1
-0.00010384034 -0.13599463 0.51500005 141 3 7
0.00046951912 -0.13625869 0.51600003 141 3 7
0.0010471231 -0.13678682 0.51800001 129 12 25
0.0016260404 -0.1370509 0.51900005 135 18 31
0.0022071807 -0.13731496 0.52000004 118 32 41
0.0027905439 -0.13757902 0.52100003 124 38 47
0.0033761305 -0.13784309 0.52200001 113 50 56
0.0039563607 -0.13784309 0.52200001 117 54 60
-0.062864922 -0.13621102 0.51800001 82 37 40
-0.062168889 -0.13594806 0.51700002 95 27 33
-0.061594214 -0.13594806 0.51700002 88 20 26
-0.061019544 -0.13594806 0.51700002 99 14 19
-0.060327955 -0.13568512 0.51600003 107 10 16
-0.05963859 -0.13542217 0.51500005 107 10 16
-0.058951445 -0.13515919 0.514 114 7 12
-0.057583835 -0.13463329 0.51200002 121 5 13
-0.05679201 -0.13410738 0.51000005 122 6 14
-0.056114867 -0.13384442 0.509 129 6 14
-0.055549085 -0.13384442 0.509 129 6 14
-0.054875284 -0.13358147 0.50800002 132 4 12
-0.054203708 -0.13331851 0.50700003 132 4 12
-0.05364015 -0.13331851 0.50700003 135 3 10
-0.053076595 -0.13331851 0.50700003 136 4 11
-0.052409463 -0.13305557 0.50600004 138 4 9
-0.051847018 -0.13305557 0.50600004 142 4 8
-0.05128457 -0.13305557 0.50600004 142 4 8
-0.050722126 -0.13305557 0.50600004 145 4 9
-0.050159682 -0.13305557 0.50600004 145 4 9
-0.049597237 -0.13305557 0.50600004 145 4 7
-0.04893788 -0.13279259 0.505 144 3 6
-0.048376545 -0.13279259 0.505 145 2 6
-0.047815211 -0.13279259 0.505 147 4 8
-0.047160305 -0.13252965 0.50400001 150 7 9
-0.046600085 -0.13252965 0.50400001 148 5 7
-0.046039861 -0.13252965 0.50400001 150 4 7
-0.045389403 -0.13226669 0.50300002 150 4 7
-0.044830292 -0.13226669 0.50300002 155 5 9
-0.044271179 -0.13226669 0.50300002 155 5 9
-0.043712068 -0.13226669 0.50300002 157 4 9
-0.043067168 -0.13200374 0.50200003 157 4 9
-0.042509168 -0.13200374 0.50200003 159 4 10
-0.041951168 -0.13200374 0.50200003 160 5 11
-0.041393168 -0.13200374 0.50200003 161 6 14
-0.040835168 -0.13200374 0.50200003 162 7 15
-0.040277172 -0.13200374 0.50200003 164 11 20
-0.039719172 -0.13200374 0.50200003 167 14 23
-0.039083164 -0.13174078 0.50100005 169 19 27
-0.038526274 -0.13174078 0.50100005 167 20 27
-0.038045175 -0.13200374 0.50200003 165 18 25
-0.037487175 -0.13200374 0.50200003 165 18 25
-0.036929175 -0.13200374 0.50200003 168 21 28
-0.034628063 -0.13174078 0.50100005 165 17 29
-0.034071174 -0.13174078 0.50100005 174 25 42
-0.033514287 -0.13174078 0.50100005 174 25 42
-0.032957397 -0.13174078 0.50100005 170 21 40
-0.032400511 -0.13174078 0.50100005 169 20 39
-0.031843625 -0.13174078 0.50100005 168 19 38
-0.031286735 -0.13174078 0.50100005 168 19 38
-0.030729847 -0.13174078 0.50100005 169 20 39
-0.030172959 -0.13174078 0.50100005 170 21 40
-0.029616071 -0.13174078 0.50100005 169 20 39
-0.029001178 -0.13147782 0.5 168 19 38
-0.028445402 -0.13147782 0.5 167 18 35
-0.027889626 -0.13147782 0.5 165 16 33
-0.02733385 -0.13147782 0.5 166 14 32
-0.026778074 -0.13147782 0.5 166 14 32
-0.026222298 -0.13147782 0.5 168 13 30
-0.025666522 -0.13147782 0.5 167 12 29
-0.025110744 -0.13147782 0.5 169 9 28
-0.024554968 -0.13147782 0.5 170 10 29
-0.023999192 -0.13147782 0.5 171 11 27
-0.023490304 -0.13174078 0.50100005 169 9 25
-0.022933418 -0.13174078 0.50100005 168 8 24
-0.02237653 -0.13174078 0.50100005 170 10 26
-0.021819642 -0.13174078 0.50100005 171 11 27
-0.021262754 -0.13174078 0.50100005 170 10 24
-0.020705866 -0.13174078 0.50100005 168 8 22
-0.020148979 -0.13174078 0.50100005 166 7 18
-0.019592091 -0.13174078 0.50100005 164 5 16
-0.019073198 -0.13200374 0.50200003 164 5 14
-0.018515198 -0.13200374 0.50200003 164 5 14
-0.017957198 -0.13200374 0.50200003 164 5 14
-0.017399197 -0.13200374 0.50200003 164 5 14
-0.016841199 -0.13200374 0.50200003 168 6 14
-0.016283199 -0.13200374 0.50200003 165 3 11
-0.015756525 -0.13226669 0.50300002 164 2 10
-0.015197414 -0.13226669 0.50300002 164 2 10
-0.014638304 -0.13226669 0.50300002 164 2 10
-0.014079193 -0.13226669 0.50300002 164 2 10
-0.013520082 -0.13226669 0.50300002 164 3 8
-0.012986738 -0.13252965 0.50400001 164 3 8
-0.012426515 -0.13252965 0.50400001 164 3 8
