ply
format ascii 1.0
comment PCL generated
element vertex 1017
property float x
property float y
property float z
property uchar red
property uchar green
property uchar blue
element camera 0
property float view_px
property float view_py
property float view_pz
property float x_axisx
property float x_axisy
property float x_axisz
property float y_axisx
property float y_axisy
property float y_axisz
property float z_axisx
property float z_axisy
property float z_axisz
property float focal
property float scalex
property float scaley
property float centerx
property float centery
property int viewportx
property int viewporty
property float k1
property float k2
end_header
-0.0001004126 -0.088328332 0.49800003 154 6 18
0.00045405046 -0.0885057 0.49900001 152 5 17
0.0010087151 -0.0885057 0.49900001 152 5 17
0.0015665127 -0.088683061 0.5 147 10 25
0.002122289 -0.088683061 0.5 149 12 27
0.0026887776 -0.089037798 0.50200003 130 18 29
0.0032532446 -0.089215167 0.50300002 132 20 31
-0.046039861 -0.088832304 0.50400001 129 14 33
-0.045389403 -0.088656053 0.50300002 129 14 33
-0.044741169 -0.088479802 0.50200003 135 13 28
-0.044095151 -0.088303551 0.50100005 135 13 28
-0.043538265 -0.088303551 0.50100005 142 11 22
-0.042895582 -0.088127285 0.5 142 11 22
-0.042255126 -0.087951034 0.49900001 148 9 18
-0.041616894 -0.087774783 0.49800003 148 9 18
-0.040980883 -0.087598525 0.49700001 151 7 18
-0.040347099 -0.087422274 0.49600002 152 5 15
-0.039715536 -0.087246016 0.49500003 154 7 17
-0.039165318 -0.087246016 0.49500003 155 8 18
-0.038537089 -0.087069757 0.49400002 154 7 17
-0.037987981 -0.087069757 0.49400002 156 6 14
-0.03736309 -0.086893506 0.49300003 156 6 14
-0.036815092 -0.086893506 0.49300003 158 5 14
-0.036193535 -0.086717248 0.49200001 158 5 14
-0.035646651 -0.086717248 0.49200001 160 5 15
-0.035099767 -0.086717248 0.49200001 162 7 17
-0.034482654 -0.086540997 0.49100003 165 10 18
-0.033936881 -0.086540997 0.49100003 166 11 19
-0.033391111 -0.086540997 0.49100003 167 12 20
-0.032845337 -0.086540997 0.49100003 165 10 18
-0.032299567 -0.086540997 0.49100003 162 7 15
-0.031689119 -0.086364739 0.49000001 162 7 15
-0.031144461 -0.086364739 0.49000001 170 12 19
-0.030599797 -0.086364739 0.49000001 172 14 21
-0.030055137 -0.086364739 0.49000001 172 14 21
-0.029450251 -0.086188488 0.48900002 173 14 23
-0.028906703 -0.086188488 0.48900002 175 16 25
-0.028363153 -0.086188488 0.48900002 176 17 26
-0.027819604 -0.086188488 0.48900002 175 16 25
-0.027276056 -0.086188488 0.48900002 175 16 25
-0.026677839 -0.086012237 0.48800004 176 17 26
-0.026135402 -0.086012237 0.48800004 176 17 26
-0.025592964 -0.086012237 0.48800004 177 18 27
-0.025050526 -0.086012237 0.48800004 177 19 28
-0.024558309 -0.086188488 0.48900002 177 19 28
-0.02401476 -0.086188488 0.48900002 178 20 29
-0.02347121 -0.086188488 0.48900002 178 20 29
-0.022927662 -0.086188488 0.48900002 178 20 27
-0.022384113 -0.086188488 0.48900002 179 21 28
-0.021840563 -0.086188488 0.48900002 175 20 26
-0.021297015 -0.086188488 0.48900002 175 20 26
-0.020795906 -0.086364739 0.49000001 176 21 27
-0.020251244 -0.086364739 0.49000001 177 22 28
-0.019706585 -0.086364739 0.49000001 173 18 24
-0.019161925 -0.086364739 0.49000001 172 17 23
-0.018655259 -0.086540997 0.49100003 172 17 23
-0.018109487 -0.086540997 0.49100003 172 17 23
-0.017563712 -0.086540997 0.49100003 170 15 23
-0.0170526 -0.086717248 0.49200001 169 14 22
-0.016505716 -0.086717248 0.49200001 168 13 23
-0.015958833 -0.086717248 0.49200001 167 12 22
-0.015411949 -0.086717248 0.49200001 168 10 21
-0.014865065 -0.086717248 0.49200001 168 10 21
-0.014347284 -0.086893506 0.49300003 168 10 21
-0.013799288 -0.086893506 0.49300003 168 10 21
-0.013251293 -0.086893506 0.49300003 168 10 21
-0.012703299 -0.086893506 0.49300003 167 9 20
-0.012155302 -0.086893506 0.49300003 167 9 20
-0.011607307 -0.086893506 0.49300003 167 9 20
-0.011059311 -0.086893506 0.49300003 167 9 20
-0.010511316 -0.086893506 0.49300003 167 9 20
-0.0099633215 -0.086893506 0.49300003 168 9 20
-0.0094153257 -0.086893506 0.49300003 166 7 18
-0.0088673308 -0.086893506 0.49300003 166 7 18
-0.0083362088 -0.087069757 0.49400002 167 5 17
-0.0077871024 -0.087069757 0.49400002 167 5 17
-0.0072379955 -0.087069757 0.49400002 166 4 16
-0.0066888891 -0.087069757 0.49400002 167 5 17
-0.0061397823 -0.087069757 0.49400002 167 5 17
-0.0056019924 -0.087246016 0.49500003 167 5 17
-0.005051774 -0.087246016 0.49500003 167 5 17
-0.0045015556 -0.087246016 0.49500003 166 4 16
-0.0039593191 -0.087422274 0.49600002 163 4 15
-0.0034079894 -0.087422274 0.49600002 163 4 15
-0.0028566595 -0.087422274 0.49600002 162 3 17
-0.0023053293 -0.087422274 0.49600002 162 3 17
-0.0017575356 -0.087598525 0.49700001 159 5 17
-0.001205094 -0.087598525 0.49700001 159 5 17
-0.00065265247 -0.087598525 0.49700001 154 6 16
-0.0001004126 -0.087774783 0.49800003 151 3 13
0.00045314056 -0.087774783 0.49800003 149 2 14
0.0010066937 -0.087774783 0.49800003 149 2 14
0.0015633798 -0.087951034 0.49900001 147 4 17
0.002122289 -0.088127285 0.5 149 6 19
0.0026834214 -0.088303551 0.50100005 138 12 26
0.0032532446 -0.088656053 0.50300002 139 13 27
0.0038199346 -0.088832304 0.50400001 124 18 34
0.004397539 -0.089184821 0.50600004 135 29 45
-0.046039861 -0.08827208 0.50400001 130 15 32
-0.045389403 -0.088096939 0.50300002 130 15 32
-0.044741169 -0.087921798 0.50200003 135 14 24
-0.044095151 -0.087746657 0.50100005 135 14 24
-0.043451358 -0.087571509 0.5 141 10 19
-0.042809792 -0.087396368 0.49900001 141 10 19
-0.04217045 -0.087221228 0.49800003 148 9 18
-0.041533325 -0.087046079 0.49700001 147 8 17
-0.040898427 -0.086870939 0.49600002 150 6 15
-0.040347099 -0.086870939 0.49600002 154 7 17
-0.039715536 -0.086695798 0.49500003 155 8 18
-0.039086197 -0.086520657 0.49400002 156 9 16
-0.038537089 -0.086520657 0.49400002 156 9 16
-0.037911084 -0.086345516 0.49300003 158 8 16
-0.03736309 -0.086345516 0.49300003 158 8 16
-0.036740419 -0.086170368 0.49200001 160 7 16
-0.036193535 -0.086170368 0.49200001 160 7 16
-0.035646651 -0.086170368 0.49200001 162 7 17
-0.035099767 -0.086170368 0.49200001 162 7 17
-0.034482654 -0.085995227 0.49100003 163 8 16
-0.033936881 -0.085995227 0.49100003 166 11 19
-0.033391111 -0.085995227 0.49100003 166 11 19
-0.032845337 -0.085995227 0.49100003 166 11 19
-0.032233782 -0.085820079 0.49000001 165 10 18
-0.031689119 -0.085820079 0.49000001 163 8 16
-0.031144461 -0.085820079 0.49000001 168 13 21
-0.030599797 -0.085820079 0.49000001 170 15 23
-0.0299938 -0.085644938 0.48900002 175 17 26
-0.029450251 -0.085644938 0.48900002 175 17 26
-0.028906703 -0.085644938 0.48900002 175 17 26
-0.028363153 -0.085644938 0.48900002 175 17 26
-0.027819604 -0.085644938 0.48900002 175 17 26
-0.027220277 -0.085469797 0.48800004 175 17 26
-0.026677839 -0.085469797 0.48800004 175 17 26
-0.026135402 -0.085469797 0.48800004 174 16 25
-0.025592964 -0.085469797 0.48800004 174 16 25
-0.025050526 -0.085469797 0.48800004 175 17 26
-0.024508087 -0.085469797 0.48800004 176 18 27
-0.023965651 -0.085469797 0.48800004 177 19 28
-0.02347121 -0.085644938 0.48900002 178 20 29
-0.022927662 -0.085644938 0.48900002 177 22 30
-0.022384113 -0.085644938 0.48900002 177 22 30
-0.021840563 -0.085644938 0.48900002 177 22 30
-0.021297015 -0.085644938 0.48900002 177 22 30
-0.020795906 -0.085820079 0.49000001 174 19 27
-0.020251244 -0.085820079 0.49000001 169 14 22
-0.019706585 -0.085820079 0.49000001 169 14 22
-0.019161925 -0.085820079 0.49000001 172 17 25
-0.018655259 -0.085995227 0.49100003 170 15 23
-0.018109487 -0.085995227 0.49100003 170 15 23
-0.017563712 -0.085995227 0.49100003 170 15 23
-0.01701794 -0.085995227 0.49100003 170 15 23
-0.016505716 -0.086170368 0.49200001 169 14 24
-0.015958833 -0.086170368 0.49200001 168 13 23
-0.015411949 -0.086170368 0.49200001 167 12 22
-0.014865065 -0.086170368 0.49200001 167 12 22
-0.014318181 -0.086170368 0.49200001 167 12 22
-0.013771297 -0.086170368 0.49200001 167 12 22
-0.013224414 -0.086170368 0.49200001 168 13 23
-0.012677531 -0.086170368 0.49200001 174 19 29
-0.012130646 -0.086170368 0.49200001 179 23 36
-0.011583762 -0.086170368 0.49200001 176 20 33
-0.011036878 -0.086170368 0.49200001 168 12 25
-0.010511316 -0.086345516 0.49300003 167 11 24
-0.0099633215 -0.086345516 0.49300003 167 11 24
-0.0094153257 -0.086345516 0.49300003 166 10 23
-0.0088673308 -0.086345516 0.49300003 163 7 20
-0.0083193341 -0.086345516 0.49300003 167 9 20
-0.0077713393 -0.086345516 0.49300003 165 7 18
-0.0072379955 -0.086520657 0.49400002 164 6 17
-0.0066888891 -0.086520657 0.49400002 167 9 20
-0.0061397823 -0.086520657 0.49400002 167 9 20
-0.0055906749 -0.086520657 0.49400002 164 6 17
-0.005051774 -0.086695798 0.49500003 163 5 16
-0.0045015556 -0.086695798 0.49500003 162 4 15
-0.0039513367 -0.086695798 0.49500003 161 2 16
-0.0034011186 -0.086695798 0.49500003 160 1 15
-0.0028566595 -0.086870939 0.49600002 161 2 16
-0.0023053293 -0.086870939 0.49600002 162 3 17
-0.0017539994 -0.086870939 0.49600002 160 6 18
-0.001205094 -0.087046079 0.49700001 160 6 18
-0.00065265247 -0.087046079 0.49700001 155 7 17
-0.00010021096 -0.087046079 0.49700001 153 5 15
0.00045314056 -0.087221228 0.49800003 149 2 14
0.0010066937 -0.087221228 0.49800003 149 2 14
0.0015633798 -0.087396368 0.49900001 147 2 16
0.0021180445 -0.087396368 0.49900001 150 5 19
0.0026834214 -0.087746657 0.50100005 143 10 24
0.003246777 -0.087921798 0.50200003 144 11 25
0.0038199346 -0.08827208 0.50400001 134 17 30
0.004397539 -0.088622376 0.50600004 141 24 37
0.0049697864 -0.088797517 0.50700003 127 41 55
0.0055442578 -0.088972658 0.50800002 134 48 62
0.0061329775 -0.089322947 0.51000005 134 48 62
-0.046039861 -0.087711863 0.50400001 129 16 30
-0.045389403 -0.087537833 0.50300002 129 16 30
-0.044741169 -0.087363802 0.50200003 136 15 25
-0.044095151 -0.087189771 0.50100005 136 15 25
-0.043451358 -0.087015733 0.5 146 11 23
-0.042809792 -0.086841702 0.49900001 146 11 23
-0.04217045 -0.086667672 0.49800003 150 8 18
-0.041533325 -0.086493641 0.49700001 149 7 17
-0.040898427 -0.08631961 0.49600002 152 5 15
-0.040265754 -0.08614558 0.49500003 155 8 15
-0.039715536 -0.08614558 0.49500003 157 10 17
-0.039086197 -0.085971549 0.49400002 156 9 16
-0.038459081 -0.085797518 0.49300003 156 9 16
-0.037911084 -0.085797518 0.49300003 160 7 16
-0.03736309 -0.085797518 0.49300003 161 8 17
-0.036740419 -0.08562348 0.49200001 163 8 18
-0.036193535 -0.08562348 0.49200001 163 8 18
-0.035646651 -0.08562348 0.49200001 165 7 18
-0.035099767 -0.08562348 0.49200001 167 9 20
-0.034482654 -0.085449457 0.49100003 167 9 18
-0.033936881 -0.085449457 0.49100003 168 10 19
-0.033391111 -0.085449457 0.49100003 167 12 20
-0.032845337 -0.085449457 0.49100003 168 13 21
-0.032233782 -0.085275419 0.49000001 168 13 21
-0.031689119 -0.085275419 0.49000001 173 18 26
-0.031144461 -0.085275419 0.49000001 173 18 26
-0.030599797 -0.085275419 0.49000001 173 18 26
-0.0299938 -0.085101388 0.48900002 174 19 27
-0.029450251 -0.085101388 0.48900002 178 20 29
-0.028906703 -0.085101388 0.48900002 176 18 27
-0.028363153 -0.085101388 0.48900002 175 17 26
-0.027762715 -0.084927365 0.48800004 175 17 26
-0.027220277 -0.084927365 0.48800004 177 19 28
-0.026677839 -0.084927365 0.48800004 177 19 28
-0.026135402 -0.084927365 0.48800004 176 18 27
-0.025592964 -0.084927365 0.48800004 179 21 30
-0.025050526 -0.084927365 0.48800004 179 24 32
-0.024508087 -0.084927365 0.48800004 177 22 30
-0.023965651 -0.084927365 0.48800004 177 22 30
-0.023423214 -0.084927365 0.48800004 177 22 30
-0.022880776 -0.084927365 0.48800004 177 22 30
-0.022384113 -0.085101388 0.48900002 179 24 32
-0.021840563 -0.085101388 0.48900002 180 25 33
-0.021297015 -0.085101388 0.48900002 177 22 30
-0.020753466 -0.085101388 0.48900002 174 21 28
-0.020251244 -0.085275419 0.49000001 172 19 26
-0.019706585 -0.085275419 0.49000001 172 19 26
-0.019161925 -0.085275419 0.49000001 172 19 26
-0.018617263 -0.085275419 0.49000001 171 18 27
-0.018109487 -0.085449457 0.49100003 169 16 25
-0.017563712 -0.085449457 0.49100003 168 14 26
-0.01701794 -0.085449457 0.49100003 169 15 27
-0.016472168 -0.085449457 0.49100003 171 17 29
-0.015926396 -0.085449457 0.49100003 168 14 26
-0.015411949 -0.08562348 0.49200001 167 11 24
-0.014865065 -0.08562348 0.49200001 166 10 23
-0.014318181 -0.08562348 0.49200001 166 10 23
-0.013771297 -0.08562348 0.49200001 166 10 23
-0.013224414 -0.08562348 0.49200001 162 6 19
-0.012677531 -0.08562348 0.49200001 170 14 27
-0.012130646 -0.08562348 0.49200001 172 16 29
-0.011583762 -0.08562348 0.49200001 172 16 29
-0.011036878 -0.08562348 0.49200001 169 13 28
-0.010489995 -0.08562348 0.49200001 168 12 25
-0.0099431109 -0.08562348 0.49200001 166 10 23
-0.0094153257 -0.085797518 0.49300003 165 9 22
-0.0088673308 -0.085797518 0.49300003 165 9 22
-0.0083193341 -0.085797518 0.49300003 167 8 22
-0.0077713393 -0.085797518 0.49300003 165 6 20
-0.0072233439 -0.085797518 0.49300003 165 7 18
-0.0066888891 -0.085971549 0.49400002 167 9 20
-0.0061397823 -0.085971549 0.49400002 170 12 23
-0.0055906749 -0.085971549 0.49400002 172 14 25
-0.0050415681 -0.085971549 0.49400002 167 9 20
-0.0045015556 -0.08614558 0.49500003 163 5 16
-0.0039513367 -0.08614558 0.49500003 161 2 16
-0.0034011186 -0.08614558 0.49500003 160 1 15
-0.0028509002 -0.08614558 0.49500003 159 3 16
-0.0023053293 -0.08631961 0.49600002 159 3 16
-0.0017539994 -0.08631961 0.49600002 159 5 17
-0.0012026693 -0.08631961 0.49600002 160 6 18
-0.0006513393 -0.08631961 0.49600002 157 6 17
-0.00010021096 -0.086493641 0.49700001 155 4 15
0.0004522306 -0.086493641 0.49700001 151 3 15
0.0010066937 -0.086667672 0.49800003 151 3 15
0.0015602468 -0.086667672 0.49800003 150 2 17
0.0021180445 -0.086841702 0.49900001 150 2 17
0.0026780651 -0.087015733 0.5 145 8 21
0.003246777 -0.087363802 0.50200003 146 9 22
0.0038123552 -0.087537833 0.50300002 138 14 29
0.0043888479 -0.087885886 0.505 144 20 35
0.0049697864 -0.088233955 0.50700003 132 35 48
0.0055442578 -0.088407986 0.50800002 136 39 52
0.0061329775 -0.088756055 0.51000005 136 39 52
-0.045948513 -0.086978711 0.50300002 126 14 25
-0.045299169 -0.086805798 0.50200003 126 14 25
-0.044652045 -0.086632878 0.50100005 134 11 19
-0.044007134 -0.08645995 0.5 136 13 21
-0.043364458 -0.086287029 0.49900001 145 10 20
-0.042724002 -0.086114116 0.49800003 146 11 21
-0.042085767 -0.085941188 0.49700001 151 9 19
-0.041533325 -0.085941188 0.49700001 151 9 19
-0.040898427 -0.085768275 0.49600002 153 6 16
-0.040265754 -0.085595354 0.49500003 156 9 16
-0.039635301 -0.085422434 0.49400002 157 10 17
-0.039086197 -0.085422434 0.49400002 159 9 17
-0.038459081 -0.085249513 0.49300003 158 8 16
-0.037911084 -0.085249513 0.49300003 160 7 16
-0.03736309 -0.085249513 0.49300003 161 8 17
-0.036740419 -0.085076593 0.49200001 162 7 17
-0.036193535 -0.085076593 0.49200001 163 8 18
-0.035646651 -0.085076593 0.49200001 163 8 18
-0.035099767 -0.085076593 0.49200001 163 8 18
-0.034482654 -0.084903672 0.49100003 165 10 18
-0.033936881 -0.084903672 0.49100003 166 11 19
-0.033391111 -0.084903672 0.49100003 169 14 22
-0.032778442 -0.084730752 0.49000001 172 17 25
-0.032233782 -0.084730752 0.49000001 173 18 26
-0.031689119 -0.084730752 0.49000001 173 18 26
-0.031144461 -0.084730752 0.49000001 172 17 25
-0.03053735 -0.084557831 0.48900002 170 15 23
-0.0299938 -0.084557831 0.48900002 173 18 26
-0.029450251 -0.084557831 0.48900002 176 18 27
-0.028906703 -0.084557831 0.48900002 174 16 25
-0.028363153 -0.084557831 0.48900002 172 14 23
-0.027762715 -0.084384918 0.48800004 174 16 25
-0.027220277 -0.084384918 0.48800004 176 18 27
-0.026677839 -0.084384918 0.48800004 177 19 28
-0.026135402 -0.084384918 0.48800004 174 19 27
-0.025592964 -0.084384918 0.48800004 170 15 23
-0.025050526 -0.084384918 0.48800004 176 21 29
-0.024508087 -0.084384918 0.48800004 176 21 29
-0.023965651 -0.084384918 0.48800004 176 21 29
-0.023423214 -0.084384918 0.48800004 175 20 28
-0.022880776 -0.084384918 0.48800004 175 20 30
-0.022338338 -0.084384918 0.48800004 176 21 31
-0.021840563 -0.084557831 0.48900002 176 21 31
-0.021297015 -0.084557831 0.48900002 176 21 31
-0.020753466 -0.084557831 0.48900002 174 20 32
-0.020209916 -0.084557831 0.48900002 173 19 31
-0.019706585 -0.084730752 0.49000001 173 19 31
-0.019161925 -0.084730752 0.49000001 172 18 30
-0.018617263 -0.084730752 0.49000001 161 7 19
-0.018072603 -0.084730752 0.49000001 166 12 24
-0.017563712 -0.084903672 0.49100003 169 15 27
-0.01701794 -0.084903672 0.49100003 171 17 29
-0.016472168 -0.084903672 0.49100003 169 15 27
-0.015926396 -0.084903672 0.49100003 167 13 25
-0.015380624 -0.084903672 0.49100003 166 12 24
-0.014834852 -0.084903672 0.49100003 166 12 24
-0.01428908 -0.084903672 0.49100003 170 14 27
-0.013743307 -0.084903672 0.49100003 173 17 30
-0.013197536 -0.084903672 0.49100003 170 14 27
-0.012651764 -0.084903672 0.49100003 172 16 29
-0.01210599 -0.084903672 0.49100003 171 17 31
-0.011560218 -0.084903672 0.49100003 168 14 28
-0.011036878 -0.085076593 0.49200001 168 14 28
-0.010489995 -0.085076593 0.49200001 166 12 24
-0.0099431109 -0.085076593 0.49200001 165 11 23
-0.009396228 -0.085076593 0.49200001 165 9 22
-0.0088673308 -0.085249513 0.49300003 165 9 22
-0.0083193341 -0.085249513 0.49300003 165 9 22
-0.0077713393 -0.085249513 0.49300003 163 7 20
-0.0072233439 -0.085249513 0.49300003 167 9 20
-0.0066753486 -0.085249513 0.49300003 168 10 21
-0.0061273538 -0.085249513 0.49300003 171 13 24
-0.005579358 -0.085249513 0.49300003 171 13 24
-0.0050415681 -0.085422434 0.49400002 168 10 21
-0.0044924612 -0.085422434 0.49400002 162 4 15
-0.0039433544 -0.085422434 0.49400002 162 3 17
-0.0034011186 -0.085595354 0.49500003 160 1 15
-0.0028509002 -0.085595354 0.49500003 156 0 13
-0.0023006815 -0.085595354 0.49500003 156 0 13
-0.0017504632 -0.085595354 0.49500003 157 3 15
-0.0012026693 -0.085768275 0.49600002 158 4 16
-0.0006513393 -0.085768275 0.49600002 156 5 16
-0.00010000933 -0.085768275 0.49600002 156 5 16
0.0004522306 -0.085941188 0.49700001 153 5 15
0.0010046721 -0.085941188 0.49700001 151 3 13
0.0015602468 -0.086114116 0.49800003 150 3 15
0.0021138 -0.086114116 0.49800003 149 2 14
0.0026780651 -0.08645995 0.5 146 3 16
0.0032403094 -0.086632878 0.50100005 149 6 19
0.0038123552 -0.086978711 0.50300002 143 12 25
0.0043888479 -0.087324545 0.505 145 14 27
0.0049599842 -0.087497473 0.50600004 125 22 33
0.0055442578 -0.087843314 0.50800002 133 30 41
-0.047160305 -0.086591408 0.50400001 123 17 33
-0.046507627 -0.086419605 0.50300002 125 19 35
-0.045857165 -0.086247794 0.50200003 130 18 29
-0.045299169 -0.086247794 0.50200003 128 16 27
-0.044652045 -0.086075991 0.50100005 134 9 18
-0.044007134 -0.085904174 0.5 133 8 17
-0.043364458 -0.085732371 0.49900001 142 5 16
-0.042724002 -0.08556056 0.49800003 145 8 19
-0.042085767 -0.08538875 0.49700001 151 7 18
-0.041449759 -0.085216947 0.49600002 152 8 19
-0.040898427 -0.085216947 0.49600002 154 7 17
-0.040265754 -0.085045137 0.49500003 156 9 14
-0.039635301 -0.084873326 0.49400002 156 9 14
-0.039086197 -0.084873326 0.49400002 159 9 15
-0.038459081 -0.084701523 0.49300003 158 8 14
-0.037911084 -0.084701523 0.49300003 161 8 15
-0.03736309 -0.084701523 0.49300003 161 8 15
-0.036740419 -0.084529713 0.49200001 163 8 16
-0.036193535 -0.084529713 0.49200001 163 8 16
-0.035646651 -0.084529713 0.49200001 163 8 16
-0.035028424 -0.084357902 0.49100003 165 10 18
-0.034482654 -0.084357902 0.49100003 166 11 19
-0.033936881 -0.084357902 0.49100003 168 13 21
-0.033391111 -0.084357902 0.49100003 169 14 22
-0.032778442 -0.084186092 0.49000001 172 17 25
-0.032233782 -0.084186092 0.49000001 173 18 26
-0.031689119 -0.084186092 0.49000001 172 17 25
-0.031144461 -0.084186092 0.49000001 172 14 23
-0.03053735 -0.084014289 0.48900002 172 14 23
-0.0299938 -0.084014289 0.48900002 175 16 25
-0.029450251 -0.084014289 0.48900002 175 17 26
-0.028906703 -0.084014289 0.48900002 174 16 25
-0.028305152 -0.083842479 0.48800004 175 17 26
-0.027762715 -0.083842479 0.48800004 178 20 29
-0.027220277 -0.083842479 0.48800004 185 30 38
-0.026677839 -0.083842479 0.48800004 189 34 42
-0.026135402 -0.083842479 0.48800004 186 33 40
-0.025592964 -0.083842479 0.48800004 186 33 40
-0.025050526 -0.083842479 0.48800004 179 26 33
-0.024508087 -0.083842479 0.48800004 175 22 29
-0.023965651 -0.083842479 0.48800004 175 22 29
-0.023423214 -0.083842479 0.48800004 175 22 29
-0.022880776 -0.083842479 0.48800004 174 21 30
-0.022338338 -0.083842479 0.48800004 174 21 30
-0.021795901 -0.083842479 0.48800004 175 22 31
-0.021297015 -0.084014289 0.48900002 173 20 29
-0.020753466 -0.084014289 0.48900002 168 14 26
-0.020209916 -0.084014289 0.48900002 168 14 26
-0.019666368 -0.084014289 0.48900002 172 18 30
-0.019161925 -0.084186092 0.49000001 171 17 29
-0.018617263 -0.084186092 0.49000001 162 8 20
-0.018072603 -0.084186092 0.49000001 166 12 24
-0.01752794 -0.084186092 0.49000001 167 13 27
-0.01698328 -0.084186092 0.49000001 168 14 28
-0.01643862 -0.084186092 0.49000001 169 15 29
-0.015926396 -0.084357902 0.49100003 168 14 28
-0.015349299 -0.084186092 0.49000001 168 14 28
-0.014804638 -0.084186092 0.49000001 169 15 29
-0.014259977 -0.084186092 0.49000001 172 16 31
-0.013715317 -0.084186092 0.49000001 173 17 32
-0.013170656 -0.084186092 0.49000001 172 18 32
-0.012625996 -0.084186092 0.49000001 172 18 32
-0.01210599 -0.084357902 0.49100003 172 18 32
-0.011560218 -0.084357902 0.49100003 168 14 28
-0.011014446 -0.084357902 0.49100003 167 13 27
-0.010468674 -0.084357902 0.49100003 167 13 25
-0.0099431109 -0.084529713 0.49200001 166 12 24
-0.009396228 -0.084529713 0.49200001 165 11 23
-0.0088493442 -0.084529713 0.49200001 164 10 22
-0.0083024595 -0.084529713 0.49200001 163 7 20
-0.0077713393 -0.084701523 0.49300003 163 7 20
-0.0072233439 -0.084701523 0.49300003 165 10 20
-0.0066753486 -0.084701523 0.49300003 166 11 21
-0.0061273538 -0.084701523 0.49300003 170 12 23
-0.005579358 -0.084701523 0.49300003 171 13 24
-0.0050313626 -0.084701523 0.49300003 174 15 29
-0.0044924612 -0.084873326 0.49400002 167 8 22
-0.0039433544 -0.084873326 0.49400002 160 4 17
-0.0033942475 -0.084873326 0.49400002 159 3 16
-0.0028509002 -0.085045137 0.49500003 159 3 16
-0.0023006815 -0.085045137 0.49500003 159 3 16
-0.0017504632 -0.085045137 0.49500003 158 4 16
-0.0012002446 -0.085045137 0.49500003 158 4 16
-0.0006513393 -0.085216947 0.49600002 155 4 15
-0.00010000933 -0.085216947 0.49600002 153 2 13
0.00045132069 -0.085216947 0.49600002 150 2 12
0.0010046721 -0.08538875 0.49700001 150 2 12
0.0015571137 -0.08538875 0.49700001 149 1 13
0.0021138 -0.08556056 0.49800003 149 1 13
0.0026727091 -0.085732371 0.49900001 147 2 16
0.0032403094 -0.086075991 0.50100005 148 3 17
0.0038047761 -0.086247794 0.50200003 143 10 24
0.0043801568 -0.086591408 0.50400001 145 12 26
0.0049599842 -0.086935028 0.50600004 130 21 34
0.0055333441 -0.087106839 0.50700003 133 24 37
-0.047160305 -0.086031184 0.50400001 126 15 31
-0.046507627 -0.085860491 0.50300002 127 16 32
-0.045857165 -0.085689798 0.50200003 130 16 26
-0.045208931 -0.085519105 0.50100005 127 13 23
-0.044562913 -0.085348397 0.5 133 8 17
-0.04391912 -0.085177705 0.49900001 133 8 17
-0.043277554 -0.085007012 0.49800003 141 6 18
-0.042724002 -0.085007012 0.49800003 142 7 19
-0.042085767 -0.084836312 0.49700001 150 6 17
-0.041449759 -0.084665611 0.49600002 150 6 17
-0.040898427 -0.084665611 0.49600002 153 5 15
-0.040265754 -0.084494919 0.49500003 157 7 13
-0.039635301 -0.084324218 0.49400002 159 9 15
-0.039086197 -0.084324218 0.49400002 159 9 15
-0.038459081 -0.084153526 0.49300003 160 10 16
-0.037911084 -0.084153526 0.49300003 160 10 16
-0.03736309 -0.084153526 0.49300003 160 10 16
-0.036740419 -0.083982825 0.49200001 162 9 16
-0.036193535 -0.083982825 0.49200001 162 9 16
-0.035646651 -0.083982825 0.49200001 161 8 15
-0.035028424 -0.083812132 0.49100003 161 8 15
-0.034482654 -0.083812132 0.49100003 166 11 19
-0.033936881 -0.083812132 0.49100003 167 12 20
-0.033323102 -0.083641432 0.49000001 169 14 22
-0.032778442 -0.083641432 0.49000001 170 15 23
-0.032233782 -0.083641432 0.49000001 172 14 23
-0.031689119 -0.083641432 0.49000001 172 14 23
-0.0310809 -0.083470739 0.48900002 171 13 22
-0.03053735 -0.083470739 0.48900002 171 13 22
-0.0299938 -0.083470739 0.48900002 172 14 23
-0.029450251 -0.083470739 0.48900002 175 17 26
-0.02884759 -0.083300039 0.48800004 174 16 25
-0.028305152 -0.083300039 0.48800004 176 18 27
-0.027762715 -0.083300039 0.48800004 177 19 28
-0.027220277 -0.083300039 0.48800004 178 25 32
-0.026677839 -0.083300039 0.48800004 182 29 36
-0.026135402 -0.083300039 0.48800004 180 30 36
-0.025592964 -0.083300039 0.48800004 179 29 35
-0.025050526 -0.083300039 0.48800004 175 28 33
-0.024508087 -0.083300039 0.48800004 169 22 27
-0.023965651 -0.083300039 0.48800004 173 23 31
-0.023423214 -0.083300039 0.48800004 173 23 31
-0.022880776 -0.083300039 0.48800004 173 23 31
-0.022338338 -0.083300039 0.48800004 170 20 28
-0.021795901 -0.083300039 0.48800004 173 22 33
-0.021253463 -0.083300039 0.48800004 181 30 41
-0.020753466 -0.083470739 0.48900002 186 35 46
-0.020209916 -0.083470739 0.48900002 181 30 41
-0.019666368 -0.083470739 0.48900002 179 28 39
-0.019122818 -0.083470739 0.48900002 173 22 33
-0.018617263 -0.083641432 0.49000001 167 16 29
-0.018072603 -0.083641432 0.49000001 164 13 26
-0.01752794 -0.083641432 0.49000001 167 16 29
-0.01698328 -0.083641432 0.49000001 169 18 31
-0.01643862 -0.083641432 0.49000001 170 19 32
-0.015893959 -0.083641432 0.49000001 170 19 32
-0.015349299 -0.083641432 0.49000001 173 19 33
-0.014804638 -0.083641432 0.49000001 173 19 33
-0.014259977 -0.083641432 0.49000001 172 18 32
-0.013715317 -0.083641432 0.49000001 171 17 31
-0.013170656 -0.083641432 0.49000001 171 17 31
-0.012625996 -0.083641432 0.49000001 172 18 32
-0.012081334 -0.083641432 0.49000001 171 17 31
-0.011560218 -0.083812132 0.49100003 169 15 29
-0.011014446 -0.083812132 0.49100003 168 14 28
-0.010468674 -0.083812132 0.49100003 168 14 26
-0.0099229021 -0.083812132 0.49100003 168 14 26
-0.009396228 -0.083982825 0.49200001 167 13 25
-0.0088493442 -0.083982825 0.49200001 166 12 24
-0.0083024595 -0.083982825 0.49200001 165 11 23
-0.0077555757 -0.083982825 0.49200001 162 8 20
-0.0072233439 -0.084153526 0.49300003 163 8 18
-0.0066753486 -0.084153526 0.49300003 163 8 18
-0.0061273538 -0.084153526 0.49300003 166 11 21
-0.005579358 -0.084153526 0.49300003 172 17 27
-0.0050313626 -0.084153526 0.49300003 182 27 37
-0.0044833673 -0.084153526 0.49300003 170 15 25
-0.003935372 -0.084153526 0.49300003 163 7 20
-0.0033942475 -0.084324218 0.49400002 161 5 18
-0.0028451406 -0.084324218 0.49400002 160 6 18
-0.0023006815 -0.084494919 0.49500003 161 7 19
-0.0017504632 -0.084494919 0.49500003 158 7 18
-0.0012002446 -0.084494919 0.49500003 157 6 17
-0.00065002614 -0.084494919 0.49500003 156 5 16
-0.00010000933 -0.084665611 0.49600002 152 1 12
0.00045132069 -0.084665611 0.49600002 149 1 11
0.0010026507 -0.084665611 0.49600002 149 1 11
0.0015571137 -0.084836312 0.49700001 147 0 10
0.0021138 -0.085007012 0.49800003 147 0 10
0.0026727091 -0.085177705 0.49900001 146 2 13
0.0032338414 -0.085348397 0.5 146 2 13
0.0038047761 -0.085689798 0.50200003 142 7 17
0.0043714661 -0.085860491 0.50300002 144 9 19
0.0049501816 -0.086201884 0.505 133 20 34
0.0055333441 -0.086543277 0.50700003 135 22 36
-0.047066737 -0.085301384 0.50300002 125 10 25
-0.046415165 -0.085131794 0.50200003 125 10 25
-0.045765817 -0.084962212 0.50100005 130 10 22
-0.04511869 -0.084792621 0.5 130 10 22
-0.04447379 -0.084623039 0.49900001 134 9 20
-0.04391912 -0.084623039 0.49900001 135 10 21
-0.043277554 -0.084453456 0.49800003 143 6 19
-0.042638209 -0.084283866 0.49700001 142 5 18
-0.042085767 -0.084283866 0.49700001 147 3 14
-0.041449759 -0.084114283 0.49600002 147 3 14
-0.040815976 -0.083944701 0.49500003 151 3 13
-0.040265754 -0.083944701 0.49500003 157 7 13
-0.039635301 -0.083775111 0.49400002 159 9 15
-0.039086197 -0.083775111 0.49400002 160 10 16
-0.038459081 -0.083605528 0.49300003 160 10 16
-0.037911084 -0.083605528 0.49300003 162 12 18
-0.037287302 -0.083435945 0.49200001 160 10 16
-0.036740419 -0.083435945 0.49200001 160 10 16
-0.036193535 -0.083435945 0.49200001 160 10 16
-0.035574198 -0.083266355 0.49100003 161 8 15
-0.035028424 -0.083266355 0.49100003 161 8 15
-0.034482654 -0.083266355 0.49100003 162 7 15
-0.033936881 -0.083266355 0.49100003 165 10 18
-0.033323102 -0.083096772 0.49000001 168 13 21
-0.032778442 -0.083096772 0.49000001 168 13 21
-0.032233782 -0.083096772 0.49000001 170 12 21
-0.031689119 -0.083096772 0.49000001 170 12 21
-0.0310809 -0.08292719 0.48900002 171 13 22
-0.03053735 -0.08292719 0.48900002 172 14 23
-0.0299938 -0.08292719 0.48900002 174 16 25
-0.029390028 -0.082757607 0.48800004 176 18 27
-0.02884759 -0.082757607 0.48800004 184 26 35
-0.028305152 -0.082757607 0.48800004 190 35 43
-0.027762715 -0.082757607 0.48800004 175 20 28
-0.027220277 -0.082757607 0.48800004 161 8 15
-0.026677839 -0.082757607 0.48800004 169 16 23
-0.026135402 -0.082757607 0.48800004 178 28 34
-0.025592964 -0.082757607 0.48800004 179 29 35
-0.025050526 -0.082757607 0.48800004 184 34 42
-0.024508087 -0.082757607 0.48800004 182 32 40
-0.023965651 -0.082757607 0.48800004 182 32 40
-0.023423214 -0.082757607 0.48800004 177 27 35
-0.022880776 -0.082757607 0.48800004 178 27 38
-0.022338338 -0.082757607 0.48800004 180 29 40
-0.021795901 -0.082757607 0.48800004 180 32 42
-0.021253463 -0.082757607 0.48800004 186 38 48
-0.020711025 -0.082757607 0.48800004 190 42 54
-0.020168588 -0.082757607 0.48800004 191 43 55
-0.019666368 -0.08292719 0.48900002 184 37 49
-0.019122818 -0.08292719 0.48900002 175 28 40
-0.018579269 -0.08292719 0.48900002 174 27 39
-0.018035721 -0.08292719 0.48900002 183 36 48
-0.01749217 -0.08292719 0.48900002 170 22 34
-0.01698328 -0.083096772 0.49000001 170 22 34
-0.01643862 -0.083096772 0.49000001 172 21 34
-0.015893959 -0.083096772 0.49000001 172 21 34
-0.015349299 -0.083096772 0.49000001 172 21 34
-0.014804638 -0.083096772 0.49000001 171 20 33
-0.014259977 -0.083096772 0.49000001 173 19 33
-0.013715317 -0.083096772 0.49000001 172 18 32
-0.013170656 -0.083096772 0.49000001 171 17 31
-0.012625996 -0.083096772 0.49000001 171 17 31
-0.012081334 -0.083096772 0.49000001 172 18 32
-0.011536674 -0.083096772 0.49000001 171 17 31
-0.011014446 -0.083266355 0.49100003 169 15 29
-0.010468674 -0.083266355 0.49100003 168 14 26
-0.0099229021 -0.083266355 0.49100003 169 15 27
-0.0093771294 -0.083266355 0.49100003 168 14 26
-0.0088493442 -0.083435945 0.49200001 167 13 25
-0.0083024595 -0.083435945 0.49200001 166 13 22
-0.0077555757 -0.083435945 0.49200001 164 11 20
-0.0072086919 -0.083435945 0.49200001 165 10 20
-0.0066618081 -0.083435945 0.49200001 165 10 20
-0.0061149248 -0.083435945 0.49200001 166 11 21
-0.0055680405 -0.083435945 0.49200001 166 11 21
-0.0050313626 -0.083605528 0.49300003 166 11 21
-0.0044833673 -0.083605528 0.49300003 166 11 21
-0.003935372 -0.083605528 0.49300003 165 9 22
-0.0033873764 -0.083605528 0.49300003 165 9 22
-0.0028451406 -0.083775111 0.49400002 162 8 20
-0.0022960335 -0.083775111 0.49400002 161 7 19
-0.0017469268 -0.083775111 0.49400002 157 7 15
-0.0012002446 -0.083944701 0.49500003 155 5 13
-0.00065002614 -0.083944701 0.49500003 151 4 11
-9.9807701e-05 -0.083944701 0.49500003 150 3 10
0.00045132069 -0.084114283 0.49600002 149 2 9
0.0010026507 -0.084114283 0.49600002 149 2 9
0.0015539808 -0.084114283 0.49600002 148 1 8
0.0021095553 -0.084283866 0.49700001 149 2 9
0.002667353 -0.084453456 0.49800003 148 4 15
0.0032273738 -0.084623039 0.49900001 148 4 15
0.003797197 -0.084962212 0.50100005 143 6 17
0.0043714661 -0.085301384 0.50300002 146 9 20
0.0049403794 -0.085470967 0.50400001 133 19 29
0.0055224299 -0.08581014 0.50600004 133 19 29
-0.048280749 -0.084910743 0.50400001 126 13 31
-0.047625847 -0.08474227 0.50300002 125 12 30
-0.046973165 -0.084573798 0.50200003 127 9 25
-0.046322707 -0.084405325 0.50100005 127 9 25
-0.045674466 -0.084236845 0.5 130 8 21
-0.045028452 -0.084068373 0.49900001 131 9 22
-0.04447379 -0.084068373 0.49900001 136 8 20
-0.043831106 -0.0838999 0.49800003 136 8 20
-0.043190651 -0.083731428 0.49700001 141 6 18
-0.042638209 -0.083731428 0.49700001 141 6 18
-0.042001087 -0.083562955 0.49600002 146 4 14
-0.041449759 -0.083562955 0.49600002 146 4 14
-0.040815976 -0.083394483 0.49500003 148 4 13
-0.040265754 -0.083394483 0.49500003 154 7 12
-0.039635301 -0.083226003 0.49400002 156 9 14
-0.039086197 -0.083226003 0.49400002 157 10 15
-0.038459081 -0.083057538 0.49300003 158 11 16
-0.037911084 -0.083057538 0.49300003 162 12 18
-0.037287302 -0.082889058 0.49200001 160 10 16
-0.036740419 -0.082889058 0.49200001 160 10 16
-0.036193535 -0.082889058 0.49200001 160 10 16
-0.035574198 -0.082720585 0.49100003 161 8 15
-0.035028424 -0.082720585 0.49100003 162 9 16
-0.034482654 -0.082720585 0.49100003 164 11 18
-0.033867761 -0.082552113 0.49000001 166 13 20
-0.033323102 -0.082552113 0.49000001 168 13 21
-0.032778442 -0.082552113 0.49000001 168 13 21
-0.032233782 -0.082552113 0.49000001 168 13 21
-0.031624451 -0.08238364 0.48900002 169 14 22
-0.0310809 -0.08238364 0.48900002 171 13 22
-0.03053735 -0.08238364 0.48900002 176 18 27
-0.0299938 -0.08238364 0.48900002 187 32 40
-0.029390028 -0.082215168 0.48800004 181 28 35
-0.02884759 -0.082215168 0.48800004 180 27 34
-0.028305152 -0.082215168 0.48800004 178 25 32
-0.027762715 -0.082215168 0.48800004 171 18 25
-0.027220277 -0.082215168 0.48800004 164 11 18
-0.026677839 -0.082215168 0.48800004 186 33 40
-0.026135402 -0.082215168 0.48800004 176 26 34
-0.025592964 -0.082215168 0.48800004 174 24 32
-0.025050526 -0.082215168 0.48800004 182 34 44
-0.024508087 -0.082215168 0.48800004 182 34 44
-0.023965651 -0.082215168 0.48800004 180 32 42
-0.023423214 -0.082215168 0.48800004 179 31 41
-0.022880776 -0.082215168 0.48800004 183 35 47
-0.022338338 -0.082215168 0.48800004 185 37 49
-0.021795901 -0.082215168 0.48800004 183 35 47
-0.021253463 -0.082215168 0.48800004 184 36 48
-0.020711025 -0.082215168 0.48800004 184 37 49
-0.020168588 -0.082215168 0.48800004 185 38 50
-0.01962615 -0.082215168 0.48800004 181 37 48
-0.019122818 -0.08238364 0.48900002 174 30 41
-0.018579269 -0.08238364 0.48900002 173 29 40
-0.018035721 -0.08238364 0.48900002 198 54 65
-0.01749217 -0.08238364 0.48900002 166 18 33
-0.01694862 -0.08238364 0.48900002 166 18 33
-0.016405072 -0.08238364 0.48900002 170 22 34
-0.015861522 -0.08238364 0.48900002 170 22 34
-0.015317974 -0.08238364 0.48900002 172 21 34
-0.014774425 -0.08238364 0.48900002 172 21 34
-0.014259977 -0.082552113 0.49000001 173 19 33
-0.013715317 -0.082552113 0.49000001 172 18 32
-0.013170656 -0.082552113 0.49000001 171 17 31
-0.012625996 -0.082552113 0.49000001 169 15 29
-0.012081334 -0.082552113 0.49000001 172 18 32
-0.011536674 -0.082552113 0.49000001 173 19 33
-0.010992013 -0.082552113 0.49000001 172 18 32
-0.010468674 -0.082720585 0.49100003 169 18 29
-0.0099229021 -0.082720585 0.49100003 166 15 26
-0.0093771294 -0.082720585 0.49100003 168 14 26
-0.0088313576 -0.082720585 0.49100003 167 13 25
-0.0082855849 -0.082720585 0.49100003 166 13 22
-0.0077555757 -0.082889058 0.49200001 164 11 20
-0.0072086919 -0.082889058 0.49200001 163 8 18
-0.0066618081 -0.082889058 0.49200001 163 8 18
-0.0061149248 -0.082889058 0.49200001 163 8 18
-0.0055680405 -0.082889058 0.49200001 165 10 20
-0.0050211567 -0.082889058 0.49200001 165 10 20
-0.0044742734 -0.082889058 0.49200001 163 8 18
-0.003935372 -0.083057538 0.49300003 163 8 18
-0.0033873764 -0.083057538 0.49300003 165 10 20
-0.0028393813 -0.083057538 0.49300003 164 11 20
-0.0022960335 -0.083226003 0.49400002 161 8 17
-0.0017469268 -0.083226003 0.49400002 155 8 15
-0.0011978198 -0.083226003 0.49400002 153 6 13
-0.00065002614 -0.083394483 0.49500003 151 4 9
-9.9807701e-05 -0.083394483 0.49500003 150 3 8
0.00045041079 -0.083394483 0.49500003 150 3 10
0.0010026507 -0.083562955 0.49600002 149 2 9
0.0015539808 -0.083562955 0.49600002 149 1 11
0.0021095553 -0.083731428 0.49700001 151 3 13
0.002667353 -0.0838999 0.49800003 151 9 19
0.0032273738 -0.084068373 0.49900001 151 9 19
0.003797197 -0.084405325 0.50100005 148 8 20
0.0043627755 -0.084573798 0.50200003 147 7 19
0.0049403794 -0.084910743 0.50400001 134 14 26
0.0055224299 -0.085247695 0.50600004 137 17 29
-0.048184957 -0.084183156 0.50300002 123 12 30
-0.047531165 -0.084015802 0.50200003 122 11 29
-0.046879593 -0.083848439 0.50100005 126 8 24
-0.046230242 -0.083681069 0.5 126 8 24
-0.045674466 -0.083681069 0.5 131 7 20
-0.045028452 -0.083513707 0.49900001 132 8 21
-0.044384666 -0.083346352 0.49800003 135 7 17
-0.043831106 -0.083346352 0.49800003 136 8 18
-0.043190651 -0.083178982 0.49700001 142 7 17
-0.042552419 -0.083011627 0.49600002 142 7 17
-0.042001087 -0.083011627 0.49600002 147 8 17
-0.041449759 -0.083011627 0.49600002 145 6 15
-0.040815976 -0.082844265 0.49500003 150 6 15
-0.040265754 -0.082844265 0.49500003 154 8 13
-0.039635301 -0.082676902 0.49400002 156 10 15
-0.039086197 -0.082676902 0.49400002 160 13 18
-0.038459081 -0.08250954 0.49300003 160 13 18
-0.037911084 -0.08250954 0.49300003 160 13 18
-0.037287302 -0.082342178 0.49200001 158 11 16
-0.036740419 -0.082342178 0.49200001 162 12 18
-0.036119971 -0.082174815 0.49100003 162 12 18
-0.035574198 -0.082174815 0.49100003 164 11 18
-0.035028424 -0.082174815 0.49100003 165 12 19
-0.034482654 -0.082174815 0.49100003 165 12 19
-0.033867761 -0.082007453 0.49000001 166 13 20
-0.033323102 -0.082007453 0.49000001 168 13 21
-0.032778442 -0.082007453 0.49000001 170 15 23
-0.032167997 -0.08184009 0.48900002 173 18 26
-0.031624451 -0.08184009 0.48900002 173 18 26
-0.0310809 -0.08184009 0.48900002 174 16 25
-0.03053735 -0.08184009 0.48900002 176 18 27
-0.029932464 -0.081672728 0.48800004 185 30 38
-0.029390028 -0.081672728 0.48800004 181 28 35
-0.02884759 -0.081672728 0.48800004 179 26 33
-0.028305152 -0.081672728 0.48800004 176 26 34
-0.027762715 -0.081672728 0.48800004 174 24 32
-0.027220277 -0.081672728 0.48800004 177 27 35
-0.026677839 -0.081672728 0.48800004 180 30 38
-0.026135402 -0.081672728 0.48800004 169 19 27
-0.025592964 -0.081672728 0.48800004 171 21 29
-0.025050526 -0.081672728 0.48800004 181 34 44
-0.024457866 -0.081505366 0.48700002 181 34 44
-0.023916539 -0.081505366 0.48700002 181 34 46
-0.023375213 -0.081505366 0.48700002 179 32 44
-0.022833887 -0.081505366 0.48700002 181 33 48
-0.022338338 -0.081672728 0.48800004 183 35 50
-0.021795901 -0.081672728 0.48800004 182 37 51
-0.021253463 -0.081672728 0.48800004 182 37 51
-0.020711025 -0.081672728 0.48800004 182 37 51
-0.020168588 -0.081672728 0.48800004 182 37 51
-0.01962615 -0.081672728 0.48800004 181 36 50
-0.019083712 -0.081672728 0.48800004 180 35 49
-0.018541276 -0.081672728 0.48800004 182 37 51
-0.017998839 -0.081672728 0.48800004 195 50 64
-0.01749217 -0.08184009 0.48900002 173 28 42
-0.01694862 -0.08184009 0.48900002 168 23 37
-0.016405072 -0.08184009 0.48900002 171 24 34
-0.015861522 -0.08184009 0.48900002 169 22 32
-0.015317974 -0.08184009 0.48900002 172 21 32
-0.014774425 -0.08184009 0.48900002 172 21 32
-0.014230875 -0.08184009 0.48900002 173 19 31
-0.013687327 -0.08184009 0.48900002 171 17 29
-0.013170656 -0.082007453 0.49000001 169 15 27
-0.012625996 -0.082007453 0.49000001 171 17 29
-0.012081334 -0.082007453 0.49000001 172 18 30
-0.011536674 -0.082007453 0.49000001 172 18 30
-0.010992013 -0.082007453 0.49000001 171 17 29
-0.010447352 -0.082007453 0.49000001 169 15 27
-0.0099229021 -0.082174815 0.49100003 168 14 26
-0.0093771294 -0.082174815 0.49100003 167 14 23
-0.0088313576 -0.082174815 0.49100003 166 13 22
-0.0082855849 -0.082174815 0.49100003 166 11 21
-0.0077398126 -0.082174815 0.49100003 163 8 18
-0.0071940403 -0.082174815 0.49100003 163 8 18
-0.0066482681 -0.082174815 0.49100003 163 8 18
-0.0061024963 -0.082174815 0.49100003 163 8 18
-0.0055680405 -0.082342178 0.49200001 165 10 20
-0.0050211567 -0.082342178 0.49200001 166 11 21
-0.0044742734 -0.082342178 0.49200001 167 12 22
-0.0039273892 -0.082342178 0.49200001 165 12 21
-0.0033873764 -0.08250954 0.49300003 165 12 21
-0.0028393813 -0.08250954 0.49300003 165 12 21
-0.0022913858 -0.08250954 0.49300003 164 11 20
-0.0017433905 -0.08250954 0.49300003 158 11 18
-0.0011978198 -0.082676902 0.49400002 155 8 15
-0.00064871291 -0.082676902 0.49400002 152 6 13
-9.9807701e-05 -0.082844265 0.49500003 150 4 11
0.00045041079 -0.082844265 0.49500003 149 3 10
0.0010026507 -0.083011627 0.49600002 149 3 10
0.0015539808 -0.083011627 0.49600002 149 2 12
0.0021053108 -0.083011627 0.49600002 150 3 13
0.0026619968 -0.083178982 0.49700001 150 6 15
0.0032209062 -0.083346352 0.49800003 150 6 15
0.0037896174 -0.083681069 0.5 145 6 15
0.0043627755 -0.084015802 0.50200003 144 5 14
0.0049305772 -0.084183156 0.50300002 131 11 23
0.0055115158 -0.084517881 0.505 133 13 25
-0.050159682 -0.084122807 0.50600004 121 19 36
-0.049499214 -0.083956547 0.505 123 17 33
-0.048184957 -0.08362405 0.50300002 126 15 31
-0.047436483 -0.083291553 0.50100005 121 10 26
-0.046879593 -0.083291553 0.50100005 128 6 21
-0.046137784 -0.082959048 0.49900001 128 6 21
-0.045583118 -0.082959048 0.49900001 134 5 20
-0.044938218 -0.082792796 0.49800003 134 5 20
-0.044384666 -0.082792796 0.49800003 138 5 17
-0.043743093 -0.082626544 0.49700001 139 6 18
-0.043190651 -0.082626544 0.49700001 142 7 17
-0.042552419 -0.082460292 0.49600002 144 9 19
-0.042001087 -0.082460292 0.49600002 148 9 16
-0.041449759 -0.082460292 0.49600002 148 9 16
-0.040815976 -0.082294047 0.49500003 149 7 15
-0.040265754 -0.082294047 0.49500003 153 7 12
-0.039635301 -0.082127795 0.49400002 156 10 15
-0.039086197 -0.082127795 0.49400002 161 14 19
-0.038459081 -0.081961542 0.49300003 161 14 19
-0.037911084 -0.081961542 0.49300003 158 11 16
-0.037287302 -0.08179529 0.49200001 156 9 14
-0.036740419 -0.08179529 0.49200001 158 8 14
-0.036119971 -0.081629045 0.49100003 162 12 18
-0.035574198 -0.081629045 0.49100003 165 12 19
-0.035028424 -0.081629045 0.49100003 165 12 19
-0.034412421 -0.081462786 0.49000001 166 13 20
-0.033867761 -0.081462786 0.49000001 167 14 21
-0.033323102 -0.081462786 0.49000001 168 13 21
-0.032778442 -0.081462786 0.49000001 170 15 23
-0.032167997 -0.081296541 0.48900002 173 18 26
-0.031624451 -0.081296541 0.48900002 174 19 27
-0.0310809 -0.081296541 0.48900002 174 19 27
-0.03053735 -0.081296541 0.48900002 174 19 27
-0.029932464 -0.081130289 0.48800004 176 23 30
-0.029390028 -0.081130289 0.48800004 178 25 32
-0.02884759 -0.081130289 0.48800004 179 26 33
-0.028305152 -0.081130289 0.48800004 179 26 35
-0.027762715 -0.081130289 0.48800004 179 26 35
-0.027220277 -0.081130289 0.48800004 177 27 35
-0.026677839 -0.081130289 0.48800004 177 27 35
-0.026135402 -0.081130289 0.48800004 171 23 35
-0.02554052 -0.080964036 0.48700002 180 32 44
-0.024999194 -0.080964036 0.48700002 182 38 49
-0.024508087 -0.081130289 0.48800004 180 36 47
-0.023916539 -0.080964036 0.48700002 180 36 47
-0.023375213 -0.080964036 0.48700002 177 33 44
-0.022833887 -0.080964036 0.48700002 175 32 45
-0.022292562 -0.080964036 0.48700002 178 35 48
-0.021795901 -0.081130289 0.48800004 181 38 51
-0.021253463 -0.081130289 0.48800004 185 42 55
-0.020711025 -0.081130289 0.48800004 183 40 55
-0.020168588 -0.081130289 0.48800004 181 38 53
-0.01962615 -0.081130289 0.48800004 181 38 53
-0.019083712 -0.081130289 0.48800004 188 45 60
-0.018541276 -0.081130289 0.48800004 184 44 58
-0.017998839 -0.081130289 0.48800004 185 45 59
-0.017456399 -0.081130289 0.48800004 180 40 52
-0.016913962 -0.081130289 0.48800004 176 36 48
-0.016371524 -0.081130289 0.48800004 173 29 38
-0.015861522 -0.081296541 0.48900002 164 20 29
-0.015317974 -0.081296541 0.48900002 169 22 32
-0.014774425 -0.081296541 0.48900002 171 24 34
-0.014230875 -0.081296541 0.48900002 171 23 33
-0.013687327 -0.081296541 0.48900002 168 20 30
-0.013143778 -0.081296541 0.48900002 170 19 30
-0.012625996 -0.081462786 0.49000001 170 19 30
-0.012081334 -0.081462786 0.49000001 172 21 32
-0.011536674 -0.081462786 0.49000001 172 21 32
-0.010992013 -0.081462786 0.49000001 169 18 29
-0.010447352 -0.081462786 0.49000001 167 17 25
-0.0099026924 -0.081462786 0.49000001 166 16 24
-0.0093580317 -0.081462786 0.49000001 165 15 21
-0.0088313576 -0.081629045 0.49100003 163 13 19
-0.0082855849 -0.081629045 0.49100003 165 10 18
-0.0077398126 -0.081629045 0.49100003 165 10 18
-0.0071940403 -0.081629045 0.49100003 165 10 18
-0.0066482681 -0.081629045 0.49100003 163 8 16
-0.0061024963 -0.081629045 0.49100003 163 8 16
-0.0055567236 -0.081629045 0.49100003 165 10 18
-0.0050109513 -0.081629045 0.49100003 165 10 20
-0.0044742734 -0.08179529 0.49200001 167 12 22
-0.0039273892 -0.08179529 0.49200001 168 13 23
-0.0033805054 -0.08179529 0.49200001 168 13 23
-0.0028393813 -0.081961542 0.49300003 166 13 22
-0.0022913858 -0.081961542 0.49300003 164 11 20
-0.0017433905 -0.081961542 0.49300003 158 11 18
-0.0011953951 -0.081961542 0.49300003 156 9 16
-0.00064871291 -0.082127795 0.49400002 152 6 13
-9.9606063e-05 -0.082127795 0.49400002 149 3 10
0.00045041079 -0.082294047 0.49500003 149 3 10
0.0010006293 -0.082294047 0.49500003 149 3 10
0.0015539808 -0.082460292 0.49600002 149 3 10
0.0021053108 -0.082460292 0.49600002 152 6 13
0.0026619968 -0.082626544 0.49700001 148 4 13
0.0032209062 -0.082792796 0.49800003 147 3 12
0.0037896174 -0.083125293 0.5 144 2 12
0.0043540848 -0.083291553 0.50100005 145 3 13
0.0049305772 -0.08362405 0.50300002 133 9 22
0.0055006021 -0.083790295 0.50400001 134 10 23
-0.050060548 -0.083395213 0.505 120 19 33
-0.049401198 -0.083230078 0.50400001 124 18 32
-0.048089162 -0.082899801 0.50200003 127 12 27
-0.047436483 -0.082734667 0.50100005 125 10 25
-0.046786018 -0.082569517 0.5 131 7 22
-0.046137784 -0.082404383 0.49900001 130 6 21
-0.04549177 -0.08223924 0.49800003 134 5 20
-0.044938218 -0.08223924 0.49800003 135 6 21
-0.044295538 -0.082074098 0.49700001 138 5 17
-0.043743093 -0.082074098 0.49700001 139 6 18
-0.043190651 -0.082074098 0.49700001 143 6 17
-0.042552419 -0.081908964 0.49600002 146 9 20
-0.042001087 -0.081908964 0.49600002 151 9 17
-0.041449759 -0.081908964 0.49600002 151 9 17
-0.040815976 -0.081743829 0.49500003 150 7 13
-0.040265754 -0.081743829 0.49500003 154 8 13
-0.039635301 -0.081578687 0.49400002 156 10 15
-0.039007075 -0.081413552 0.49300003 160 13 18
-0.038459081 -0.081413552 0.49300003 161 14 19
-0.037834182 -0.08124841 0.49200001 162 12 18
-0.037287302 -0.08124841 0.49200001 159 9 15
-0.036665741 -0.081083268 0.49100003 161 8 15
-0.036119971 -0.081083268 0.49100003 164 11 18
-0.035574198 -0.081083268 0.49100003 166 13 20
-0.034957085 -0.080918126 0.49000001 167 14 21
-0.034412421 -0.080918126 0.49000001 168 13 21
-0.033867761 -0.080918126 0.49000001 168 13 21
-0.033323102 -0.080918126 0.49000001 169 14 22
-0.032778442 -0.080918126 0.49000001 170 15 23
-0.032167997 -0.080752991 0.48900002 173 18 26
-0.031624451 -0.080752991 0.48900002 180 25 33
-0.0310809 -0.080752991 0.48900002 179 24 32
-0.030474901 -0.080587856 0.48800004 177 22 30
-0.029932464 -0.080587856 0.48800004 179 24 32
-0.029390028 -0.080587856 0.48800004 179 26 33
-0.02884759 -0.080587856 0.48800004 180 27 34
-0.028305152 -0.080587856 0.48800004 179 29 37
-0.027762715 -0.080587856 0.48800004 179 29 37
-0.027220277 -0.080587856 0.48800004 177 27 35
-0.026677839 -0.080587856 0.48800004 172 22 30
-0.026081845 -0.080422714 0.48700002 182 38 49
-0.02554052 -0.080422714 0.48700002 189 45 56
-0.024999194 -0.080422714 0.48700002 183 41 51
-0.024457866 -0.080422714 0.48700002 181 39 49
-0.023916539 -0.080422714 0.48700002 180 41 50
-0.023375213 -0.080422714 0.48700002 184 45 54
-0.022833887 -0.080422714 0.48700002 186 46 58
-0.022292562 -0.080422714 0.48700002 186 46 58
-0.021751236 -0.080422714 0.48700002 187 47 61
-0.021209911 -0.080422714 0.48700002 185 45 59
-0.020668585 -0.080422714 0.48700002 179 42 57
-0.020168588 -0.080587856 0.48800004 181 44 59
-0.01962615 -0.080587856 0.48800004 181 44 59
-0.019083712 -0.080587856 0.48800004 182 45 60
-0.018541276 -0.080587856 0.48800004 181 44 59
-0.017998839 -0.080587856 0.48800004 179 42 57
-0.017456399 -0.080587856 0.48800004 176 39 50
-0.016913962 -0.080587856 0.48800004 172 35 46
-0.016371524 -0.080587856 0.48800004 172 33 42
-0.015829086 -0.080587856 0.48800004 170 31 40
