ply
format ascii 1.0
comment PCL generated
element vertex 1046
property float x
property float y
property float z
property uchar red
property uchar green
property uchar blue
element camera 0
property float view_px
property float view_py
property float view_pz
property float x_axisx
property float x_axisy
property float x_axisz
property float y_axisx
property float y_axisy
property float y_axisz
property float z_axisx
property float z_axisy
property float z_axisz
property float focal
property float scalex
property float scaley
property float centerx
property float centery
property int viewportx
property int viewporty
property float k1
property float k2
end_header
0.050171971 -0.078207009 0.49700001 175 10 21
0.050724413 -0.078207009 0.49700001 175 8 20
0.051173683 -0.078049652 0.49600002 176 9 21
0.051725011 -0.078049652 0.49600002 176 9 21
0.052276343 -0.078049652 0.49600002 176 9 21
0.052827671 -0.078049652 0.49600002 176 9 21
0.053486619 -0.078207009 0.49700001 176 9 21
0.054039061 -0.078207009 0.49700001 175 8 20
0.054591503 -0.078207009 0.49700001 175 8 20
0.055143945 -0.078207009 0.49700001 176 9 23
0.055696383 -0.078207009 0.49700001 176 9 23
0.056248825 -0.078207009 0.49700001 175 10 23
0.056801267 -0.078207009 0.49700001 176 11 24
0.057353709 -0.078207009 0.49700001 175 10 23
0.058022663 -0.078364372 0.49800003 174 9 22
0.058576215 -0.078364372 0.49800003 171 8 23
0.059129771 -0.078364372 0.49800003 172 9 24
0.059803165 -0.078521729 0.49900001 174 11 28
0.060357835 -0.078521729 0.49900001 174 11 28
0.061034568 -0.078679085 0.5 172 13 29
0.061590344 -0.078679085 0.5 174 15 31
0.062270418 -0.078836448 0.50100005 167 18 33
0.062827304 -0.078836448 0.50100005 165 16 31
0.06338419 -0.078836448 0.50100005 158 25 46
0.064196333 -0.079151161 0.50300002 162 29 50
0.0267359 -0.078592055 0.50300002 141 22 29
0.027743373 -0.078279562 0.50100005 142 21 29
0.028300261 -0.078279562 0.50100005 142 21 29
0.028799547 -0.078123309 0.5 143 20 28
0.029355323 -0.078123309 0.5 143 20 28
0.029851278 -0.077967063 0.49900001 144 16 26
0.030405942 -0.077967063 0.49900001 143 15 25
0.030960606 -0.077967063 0.49900001 145 12 22
0.031515274 -0.077967063 0.49900001 147 4 17
0.032005671 -0.077810816 0.49800003 150 7 20
0.032559223 -0.077810816 0.49800003 156 8 20
0.033112776 -0.077810816 0.49800003 157 9 21
0.033666328 -0.077810816 0.49800003 161 7 19
0.034151167 -0.07765457 0.49700001 162 8 20
0.034703609 -0.07765457 0.49700001 163 7 20
0.035256051 -0.07765457 0.49700001 165 9 22
0.035808489 -0.07765457 0.49700001 167 9 20
0.036360931 -0.07765457 0.49700001 167 9 20
0.036913373 -0.07765457 0.49700001 170 8 20
0.037465815 -0.07765457 0.49700001 171 9 21
0.038018256 -0.07765457 0.49700001 174 9 22
0.038570698 -0.07765457 0.49700001 175 10 23
0.039044421 -0.077498324 0.49600002 175 10 23
0.039595753 -0.077498324 0.49600002 174 9 22
0.040147081 -0.077498324 0.49600002 175 8 22
0.040698409 -0.077498324 0.49600002 175 8 22
0.041249741 -0.077498324 0.49600002 176 9 23
0.041801069 -0.077498324 0.49600002 176 9 23
0.042352401 -0.077498324 0.49600002 176 9 23
0.042903729 -0.077498324 0.49600002 176 9 23
0.043455061 -0.077498324 0.49600002 175 10 23
0.044006389 -0.077498324 0.49600002 175 10 23
0.04455772 -0.077498324 0.49600002 176 11 24
0.045109052 -0.077498324 0.49600002 176 11 24
0.045660384 -0.077498324 0.49600002 173 11 23
0.046211712 -0.077498324 0.49600002 174 12 24
0.046763044 -0.077498324 0.49600002 178 16 28
0.047314372 -0.077498324 0.49600002 179 17 29
0.047865704 -0.077498324 0.49600002 179 17 29
0.048417032 -0.077498324 0.49600002 179 17 29
0.048968364 -0.077498324 0.49600002 177 15 27
0.049519692 -0.077498324 0.49600002 177 12 25
0.050071023 -0.077498324 0.49600002 175 10 23
0.050622351 -0.077498324 0.49600002 175 8 22
0.051173683 -0.077498324 0.49600002 182 15 29
0.051725011 -0.077498324 0.49600002 181 14 28
0.052276343 -0.077498324 0.49600002 178 11 25
0.052827671 -0.077498324 0.49600002 177 10 24
0.053379003 -0.077498324 0.49600002 178 11 25
0.054039061 -0.07765457 0.49700001 178 11 25
0.054591503 -0.07765457 0.49700001 178 11 25
0.055143945 -0.07765457 0.49700001 178 11 25
0.055696383 -0.07765457 0.49700001 177 10 24
0.056248825 -0.07765457 0.49700001 176 11 24
0.056801267 -0.07765457 0.49700001 176 11 24
0.057353709 -0.07765457 0.49700001 174 9 22
0.058022663 -0.077810816 0.49800003 173 8 21
0.058576215 -0.077810816 0.49800003 172 6 22
0.059129771 -0.077810816 0.49800003 173 7 23
0.059803165 -0.077967063 0.49900001 171 8 25
0.060357835 -0.077967063 0.49900001 173 10 27
0.061034568 -0.078123309 0.5 172 12 28
0.061590344 -0.078123309 0.5 173 13 29
0.062270418 -0.078279562 0.50100005 169 14 31
0.062827304 -0.078279562 0.50100005 169 14 31
0.063510709 -0.078435808 0.50200003 154 17 39
0.064068705 -0.078435808 0.50200003 159 22 44
0.02617679 -0.078032941 0.50300002 143 20 28
0.026682748 -0.077877805 0.50200003 147 19 27
0.027186485 -0.077722676 0.50100005 148 20 28
0.027743373 -0.077722676 0.50100005 152 19 29
0.028243771 -0.077567533 0.5 152 19 29
0.028799547 -0.077567533 0.5 150 17 27
0.029296612 -0.077412397 0.49900001 146 13 23
0.029851278 -0.077412397 0.49900001 149 12 23
0.030405942 -0.077412397 0.49900001 149 12 23
0.030898562 -0.077257268 0.49800003 149 9 21
0.031452116 -0.077257268 0.49800003 154 6 18
0.032005671 -0.077257268 0.49800003 155 7 19
0.032559223 -0.077257268 0.49800003 161 5 18
0.033046283 -0.077102132 0.49700001 161 5 18
0.033598725 -0.077102132 0.49700001 164 5 19
0.034151167 -0.077102132 0.49700001 165 6 20
0.034633782 -0.076946996 0.49600002 176 17 28
0.035185114 -0.076946996 0.49600002 171 12 23
0.035736442 -0.076946996 0.49600002 169 10 21
0.036287773 -0.076946996 0.49600002 168 9 20
0.036839101 -0.076946996 0.49600002 170 8 20
0.037390433 -0.076946996 0.49600002 171 9 21
0.037941761 -0.076946996 0.49600002 175 10 23
0.038493093 -0.076946996 0.49600002 176 11 24
0.039044421 -0.076946996 0.49600002 175 8 22
0.039595753 -0.076946996 0.49600002 174 7 21
0.040147081 -0.076946996 0.49600002 174 7 21
0.040698409 -0.076946996 0.49600002 175 8 22
0.041249741 -0.076946996 0.49600002 177 10 24
0.041801069 -0.076946996 0.49600002 177 10 24
0.042352401 -0.076946996 0.49600002 177 10 24
0.042903729 -0.076946996 0.49600002 177 10 24
0.043455061 -0.076946996 0.49600002 177 10 24
0.044006389 -0.076946996 0.49600002 177 10 24
0.04455772 -0.076946996 0.49600002 176 11 24
0.045109052 -0.076946996 0.49600002 176 11 24
0.045660384 -0.076946996 0.49600002 177 12 25
0.046211712 -0.076946996 0.49600002 179 14 27
0.046763044 -0.076946996 0.49600002 181 16 29
0.047314372 -0.076946996 0.49600002 179 17 29
0.047865704 -0.076946996 0.49600002 180 18 30
0.048417032 -0.076946996 0.49600002 179 17 29
0.048968364 -0.076946996 0.49600002 177 15 27
0.049519692 -0.076946996 0.49600002 176 11 24
0.050071023 -0.076946996 0.49600002 176 11 24
0.050622351 -0.076946996 0.49600002 176 11 24
0.051173683 -0.076946996 0.49600002 180 15 28
0.051725011 -0.076946996 0.49600002 179 14 27
0.052276343 -0.076946996 0.49600002 177 12 25
0.052827671 -0.076946996 0.49600002 177 12 25
0.053379003 -0.076946996 0.49600002 179 14 27
0.053930331 -0.076946996 0.49600002 180 15 28
0.054481663 -0.076946996 0.49600002 181 16 29
0.055032991 -0.076946996 0.49600002 180 15 28
0.055584323 -0.076946996 0.49600002 179 14 27
0.056248825 -0.077102132 0.49700001 177 12 25
0.056801267 -0.077102132 0.49700001 176 11 24
0.057353709 -0.077102132 0.49700001 175 10 23
0.057906151 -0.077102132 0.49700001 170 5 18
0.058576215 -0.077257268 0.49800003 170 7 22
0.059129771 -0.077257268 0.49800003 174 11 26
0.059803165 -0.077412397 0.49900001 173 10 25
0.060357835 -0.077412397 0.49900001 172 9 24
0.060912501 -0.077412397 0.49900001 170 10 26
0.061590344 -0.077567533 0.5 170 10 26
0.06214612 -0.077567533 0.5 168 11 29
0.062827304 -0.077722676 0.50100005 169 12 30
0.06338419 -0.077722676 0.50100005 161 20 41
0.064068705 -0.077877805 0.50200003 163 22 43
0.025108386 -0.077627853 0.50400001 135 19 27
0.02561768 -0.077473827 0.50300002 143 15 25
0.026124749 -0.077319808 0.50200003 144 16 26
0.026629597 -0.07716579 0.50100005 152 17 27
0.027186485 -0.07716579 0.50100005 152 17 27
0.027687995 -0.077011757 0.5 153 16 27
0.028187284 -0.076857738 0.49900001 153 16 27
0.028741948 -0.076857738 0.49900001 152 12 24
0.029296612 -0.076857738 0.49900001 151 11 23
0.029791456 -0.076703712 0.49800003 154 11 24
0.03034501 -0.076703712 0.49800003 157 12 26
0.030898562 -0.076703712 0.49800003 154 9 23
0.031452116 -0.076703712 0.49800003 155 7 19
0.031941399 -0.076549686 0.49700001 155 7 19
0.032493841 -0.076549686 0.49700001 163 4 18
0.033046283 -0.076549686 0.49700001 163 4 18
0.033531122 -0.076395668 0.49600002 167 4 19
0.034082454 -0.076395668 0.49600002 170 7 22
0.034633782 -0.076395668 0.49600002 173 8 21
0.035185114 -0.076395668 0.49600002 174 9 22
0.035736442 -0.076395668 0.49600002 172 7 20
0.036287773 -0.076395668 0.49600002 170 5 18
0.036839101 -0.076395668 0.49600002 172 7 20
0.037390433 -0.076395668 0.49600002 173 8 21
0.037941761 -0.076395668 0.49600002 175 10 23
0.038493093 -0.076395668 0.49600002 176 11 24
0.039044421 -0.076395668 0.49600002 176 9 23
0.039595753 -0.076395668 0.49600002 174 7 21
0.040147081 -0.076395668 0.49600002 174 7 21
0.040698409 -0.076395668 0.49600002 175 8 22
0.041249741 -0.076395668 0.49600002 177 7 22
0.041801069 -0.076395668 0.49600002 177 7 22
0.042352401 -0.076395668 0.49600002 177 7 22
0.042903729 -0.076395668 0.49600002 178 8 23
0.043455061 -0.076395668 0.49600002 178 8 23
0.044006389 -0.076395668 0.49600002 179 9 24
0.04455772 -0.076395668 0.49600002 176 9 23
0.045109052 -0.076395668 0.49600002 176 9 23
0.045660384 -0.076395668 0.49600002 178 11 25
0.046211712 -0.076395668 0.49600002 179 14 27
0.046763044 -0.076395668 0.49600002 180 15 28
0.047314372 -0.076395668 0.49600002 181 16 29
0.047865704 -0.076395668 0.49600002 182 17 30
0.048417032 -0.076395668 0.49600002 182 17 30
0.048968364 -0.076395668 0.49600002 181 16 29
0.049519692 -0.076395668 0.49600002 181 16 29
0.050071023 -0.076395668 0.49600002 179 14 27
0.050622351 -0.076395668 0.49600002 179 14 27
0.051173683 -0.076395668 0.49600002 179 14 27
0.051725011 -0.076395668 0.49600002 177 12 25
0.052276343 -0.076395668 0.49600002 176 11 24
0.052827671 -0.076395668 0.49600002 177 10 24
0.053379003 -0.076395668 0.49600002 178 11 25
0.053930331 -0.076395668 0.49600002 179 14 27
0.054481663 -0.076395668 0.49600002 180 15 28
0.055032991 -0.076395668 0.49600002 182 17 30
0.055584323 -0.076395668 0.49600002 181 16 29
0.056135651 -0.076395668 0.49600002 177 15 27
0.056801267 -0.076549686 0.49700001 173 11 23
0.057353709 -0.076549686 0.49700001 170 8 20
0.057906151 -0.076549686 0.49700001 164 2 14
0.058576215 -0.076703712 0.49800003 184 21 36
0.059129771 -0.076703712 0.49800003 179 16 31
0.059683323 -0.076703712 0.49800003 172 12 26
0.060357835 -0.076857738 0.49900001 171 11 25
0.060912501 -0.076857738 0.49900001 170 10 26
0.061590344 -0.077011757 0.5 170 10 26
0.06214612 -0.077011757 0.5 169 9 28
0.062827304 -0.07716579 0.50100005 171 11 30
0.06338419 -0.07716579 0.50100005 164 18 39
0.063941084 -0.07716579 0.50100005 166 20 41
0.068651736 -0.078089923 0.50700003 156 54 71
0.016497197 -0.078749664 0.51500005 97 73 77
0.017102789 -0.07890258 0.51600003 85 61 65
0.024548164 -0.077067629 0.50400001 140 21 30
0.025058568 -0.07691472 0.50300002 138 19 28
0.025566749 -0.076761812 0.50200003 146 13 25
0.026072709 -0.076608896 0.50100005 147 14 26
0.026629597 -0.076608896 0.50100005 154 14 26
0.027132219 -0.076455981 0.5 155 15 27
0.027687995 -0.076455981 0.5 156 13 26
0.028187284 -0.076303072 0.49900001 156 13 26
0.028741948 -0.076303072 0.49900001 157 12 26
0.029237904 -0.076150164 0.49800003 157 12 26
0.029791456 -0.076150164 0.49800003 157 12 26
0.03034501 -0.076150164 0.49800003 161 14 26
0.030836515 -0.075997248 0.49700001 159 12 24
0.031388961 -0.075997248 0.49700001 158 10 22
0.031941399 -0.075997248 0.49700001 158 10 22
0.032428462 -0.075844333 0.49600002 162 6 19
0.032979794 -0.075844333 0.49600002 162 6 19
0.033531122 -0.075844333 0.49600002 167 4 19
0.034082454 -0.075844333 0.49600002 168 5 20
0.034633782 -0.075844333 0.49600002 173 8 21
0.035185114 -0.075844333 0.49600002 174 9 22
0.035664394 -0.075691424 0.49500003 175 10 23
0.036214612 -0.075691424 0.49500003 176 11 24
0.03676483 -0.075691424 0.49500003 176 11 24
0.037390433 -0.075844333 0.49600002 175 10 23
0.037941761 -0.075844333 0.49600002 173 8 19
0.038493093 -0.075844333 0.49600002 174 9 20
0.038965702 -0.075691424 0.49500003 175 8 20
0.039515924 -0.075691424 0.49500003 174 7 19
0.040066142 -0.075691424 0.49500003 173 6 20
0.04061636 -0.075691424 0.49500003 174 7 21
0.041166577 -0.075691424 0.49500003 176 6 21
0.041716795 -0.075691424 0.49500003 177 7 22
0.042267013 -0.075691424 0.49500003 178 8 23
0.042817231 -0.075691424 0.49500003 175 5 20
0.043367449 -0.075691424 0.49500003 175 5 20
0.043917667 -0.075691424 0.49500003 173 3 18
0.044467889 -0.075691424 0.49500003 175 8 22
0.045109052 -0.075844333 0.49600002 175 8 22
0.045660384 -0.075844333 0.49600002 180 13 27
0.046211712 -0.075844333 0.49600002 179 14 27
0.046763044 -0.075844333 0.49600002 180 15 28
0.047314372 -0.075844333 0.49600002 180 15 28
0.047865704 -0.075844333 0.49600002 181 16 29
0.048417032 -0.075844333 0.49600002 181 16 29
0.048968364 -0.075844333 0.49600002 182 17 30
0.049519692 -0.075844333 0.49600002 182 17 30
0.050071023 -0.075844333 0.49600002 181 16 29
0.050622351 -0.075844333 0.49600002 179 14 27
0.051173683 -0.075844333 0.49600002 179 14 27
0.051725011 -0.075844333 0.49600002 177 12 25
0.052276343 -0.075844333 0.49600002 176 11 24
0.052827671 -0.075844333 0.49600002 176 11 24
0.053379003 -0.075844333 0.49600002 177 12 25
0.053930331 -0.075844333 0.49600002 179 14 27
0.054481663 -0.075844333 0.49600002 180 15 28
0.055032991 -0.075844333 0.49600002 181 16 29
0.055584323 -0.075844333 0.49600002 181 16 29
0.056135651 -0.075844333 0.49600002 178 16 28
0.056801267 -0.075997248 0.49700001 174 12 24
0.057353709 -0.075997248 0.49700001 173 11 23
0.057906151 -0.075997248 0.49700001 174 12 24
0.058458593 -0.075997248 0.49700001 177 14 29
0.059129771 -0.076150164 0.49800003 175 12 27
0.059683323 -0.076150164 0.49800003 172 12 26
0.060357835 -0.076303072 0.49900001 172 12 26
0.060912501 -0.076303072 0.49900001 172 12 26
0.061467163 -0.076303072 0.49900001 171 11 25
0.06214612 -0.076455981 0.5 170 11 27
0.062701896 -0.076455981 0.5 171 12 28
0.06338419 -0.076608896 0.50100005 164 15 37
0.063941084 -0.076608896 0.50100005 167 18 40
0.023987941 -0.076507404 0.50400001 138 24 34
0.024499457 -0.076355606 0.50300002 145 20 29
0.025008751 -0.076203808 0.50200003 144 19 28
0.025515821 -0.07605201 0.50100005 149 14 24
0.026020665 -0.075900204 0.5 149 14 24
0.026576441 -0.075900204 0.5 152 12 24
0.027077954 -0.075748406 0.49900001 154 14 26
0.02763262 -0.075748406 0.49900001 157 13 24
0.028187284 -0.075748406 0.49900001 157 13 24
0.02868435 -0.075596608 0.49800003 157 13 24
0.029237904 -0.075596608 0.49800003 158 14 25
0.029731633 -0.075444803 0.49700001 161 14 26
0.030284075 -0.075444803 0.49700001 160 13 25
0.030836515 -0.075444803 0.49700001 160 13 25
0.031325802 -0.075293005 0.49600002 163 12 25
0.031877134 -0.075293005 0.49600002 162 11 24
0.032428462 -0.075293005 0.49600002 165 9 22
0.032979794 -0.075293005 0.49600002 165 9 22
0.033463519 -0.075141206 0.49500003 166 6 20
0.034013737 -0.075141206 0.49500003 169 9 23
0.034563959 -0.075141206 0.49500003 174 9 22
0.035114177 -0.075141206 0.49500003 175 10 23
0.035664394 -0.075141206 0.49500003 176 11 24
0.036214612 -0.075141206 0.49500003 177 12 25
0.03676483 -0.075141206 0.49500003 176 11 24
0.037315048 -0.075141206 0.49500003 175 10 23
0.037865266 -0.075141206 0.49500003 174 9 20
0.038415484 -0.075141206 0.49500003 174 9 20
0.038965702 -0.075141206 0.49500003 174 9 20
0.039515924 -0.075141206 0.49500003 174 9 20
0.040066142 -0.075141206 0.49500003 175 8 22
0.04061636 -0.075141206 0.49500003 175 8 22
0.041166577 -0.075141206 0.49500003 176 9 23
0.041716795 -0.075141206 0.49500003 177 10 24
0.042267013 -0.075141206 0.49500003 177 10 24
0.042817231 -0.075141206 0.49500003 175 8 22
0.043367449 -0.075141206 0.49500003 175 5 20
0.043917667 -0.075141206 0.49500003 171 1 16
0.044467889 -0.075141206 0.49500003 181 14 28
0.04501811 -0.075141206 0.49500003 180 15 28
0.045568328 -0.075141206 0.49500003 180 15 28
0.046211712 -0.075293005 0.49600002 179 14 27
0.046763044 -0.075293005 0.49600002 180 15 28
0.047314372 -0.075293005 0.49600002 181 16 29
0.047865704 -0.075293005 0.49600002 179 14 27
0.048417032 -0.075293005 0.49600002 175 10 23
0.048968364 -0.075293005 0.49600002 183 18 31
0.049519692 -0.075293005 0.49600002 182 17 30
0.050071023 -0.075293005 0.49600002 181 16 29
0.050622351 -0.075293005 0.49600002 180 15 28
0.051173683 -0.075293005 0.49600002 179 14 27
0.051725011 -0.075293005 0.49600002 177 12 25
0.052276343 -0.075293005 0.49600002 177 12 25
0.052827671 -0.075293005 0.49600002 177 12 25
0.053379003 -0.075293005 0.49600002 180 15 28
0.053930331 -0.075293005 0.49600002 179 14 27
0.054481663 -0.075293005 0.49600002 180 15 28
0.055032991 -0.075293005 0.49600002 178 16 28
0.055584323 -0.075293005 0.49600002 178 16 28
0.056135651 -0.075293005 0.49600002 175 13 25
0.056686983 -0.075293005 0.49600002 174 12 24
0.057353709 -0.075444803 0.49700001 173 11 23
0.057906151 -0.075444803 0.49700001 173 11 23
0.058458593 -0.075444803 0.49700001 174 12 24
0.059129771 -0.075596608 0.49800003 173 11 23
0.059683323 -0.075596608 0.49800003 171 12 23
0.060236879 -0.075596608 0.49800003 171 12 23
0.060912501 -0.075748406 0.49900001 171 11 25
0.061467163 -0.075748406 0.49900001 171 11 25
0.06214612 -0.075900204 0.5 170 11 27
0.062701896 -0.075900204 0.5 170 11 27
0.06338419 -0.07605201 0.50100005 164 15 34
0.063941084 -0.07605201 0.50100005 165 16 35
0.064626709 -0.076203808 0.50200003 160 21 44
0.065314554 -0.076355606 0.50300002 163 24 47
0.067258254 -0.076659203 0.505 159 36 56
0.067953885 -0.076811016 0.50600004 160 37 57
0.023427719 -0.075947188 0.50400001 139 15 28
0.023892753 -0.075645812 0.50200003 143 19 32
0.024402045 -0.075495124 0.50100005 149 16 26
0.024958933 -0.075495124 0.50100005 149 16 26
0.025464889 -0.075344428 0.5 151 17 24
0.026020665 -0.075344428 0.5 151 17 24
0.026523288 -0.07519374 0.49900001 156 14 24
0.027023692 -0.075043052 0.49800003 156 14 24
0.027577244 -0.075043052 0.49800003 155 11 22
0.028130798 -0.075043052 0.49800003 155 11 22
0.02868435 -0.075043052 0.49800003 157 10 22
0.029179191 -0.074892364 0.49700001 159 12 24
0.029731633 -0.074892364 0.49700001 160 13 25
0.03022314 -0.074741676 0.49600002 162 14 26
0.03077447 -0.074741676 0.49600002 163 15 27
0.031325802 -0.074741676 0.49600002 165 14 25
0.031877134 -0.074741676 0.49600002 165 14 25
0.032363083 -0.074590988 0.49500003 166 12 24
0.032913301 -0.074590988 0.49500003 165 11 23
0.033463519 -0.074590988 0.49500003 169 10 21
0.034013737 -0.074590988 0.49500003 171 12 23
0.034563959 -0.074590988 0.49500003 173 11 23
0.035114177 -0.074590988 0.49500003 175 13 25
0.035664394 -0.074590988 0.49500003 175 13 25
0.036214612 -0.074590988 0.49500003 177 15 27
0.03676483 -0.074590988 0.49500003 177 15 27
0.037315048 -0.074590988 0.49500003 177 15 27
0.037865266 -0.074590988 0.49500003 178 16 26
0.038415484 -0.074590988 0.49500003 177 15 25
0.038965702 -0.074590988 0.49500003 176 11 22
0.039515924 -0.074590988 0.49500003 175 10 21
0.040066142 -0.074590988 0.49500003 175 10 21
0.04061636 -0.074590988 0.49500003 176 11 22
0.041166577 -0.074590988 0.49500003 177 12 25
0.041716795 -0.074590988 0.49500003 179 14 27
0.042267013 -0.074590988 0.49500003 178 11 25
0.042817231 -0.074590988 0.49500003 176 9 23
0.043367449 -0.074590988 0.49500003 175 7 24
0.043917667 -0.074590988 0.49500003 176 8 25
0.044467889 -0.074590988 0.49500003 181 15 31
0.04501811 -0.074590988 0.49500003 179 16 31
0.045568328 -0.074590988 0.49500003 179 16 31
0.046118546 -0.074590988 0.49500003 179 16 31
0.046668764 -0.074590988 0.49500003 179 16 31
0.047218982 -0.074590988 0.49500003 180 18 30
0.0477692 -0.074590988 0.49500003 182 20 32
0.048319418 -0.074590988 0.49500003 182 20 32
0.048869636 -0.074590988 0.49500003 184 22 34
0.049419858 -0.074590988 0.49500003 179 17 29
0.049970075 -0.074590988 0.49500003 178 16 28
0.050520293 -0.074590988 0.49500003 180 15 28
0.051070511 -0.074590988 0.49500003 179 14 27
0.051620729 -0.074590988 0.49500003 180 15 28
0.052170947 -0.074590988 0.49500003 181 16 29
0.052827671 -0.074741676 0.49600002 181 16 29
0.053379003 -0.074741676 0.49600002 180 15 28
0.053930331 -0.074741676 0.49600002 179 14 27
0.054481663 -0.074741676 0.49600002 180 15 28
0.055032991 -0.074741676 0.49600002 178 16 28
0.055584323 -0.074741676 0.49600002 177 15 27
0.056135651 -0.074741676 0.49600002 175 13 25
0.056686983 -0.074741676 0.49600002 173 11 23
0.057353709 -0.074892364 0.49700001 173 11 23
0.057906151 -0.074892364 0.49700001 172 10 22
0.058458593 -0.074892364 0.49700001 173 11 23
0.059011035 -0.074892364 0.49700001 173 11 23
0.059683323 -0.075043052 0.49800003 173 11 23
0.060236879 -0.075043052 0.49800003 174 12 24
0.060912501 -0.07519374 0.49900001 173 13 27
0.061467163 -0.07519374 0.49900001 172 12 26
0.062021829 -0.07519374 0.49900001 170 11 27
0.062701896 -0.075344428 0.5 170 11 27
0.063257672 -0.075344428 0.5 163 14 33
0.063941084 -0.075495124 0.50100005 165 16 35
0.06449797 -0.075495124 0.50100005 162 21 42
0.065184705 -0.075645812 0.50200003 164 23 44
0.06587366 -0.0757965 0.50300002 160 27 48
0.066564843 -0.075947188 0.50400001 163 30 51
0.067125067 -0.075947188 0.50400001 159 34 52
0.067819588 -0.076097868 0.505 159 34 52
0.017607836 -0.076882735 0.514 108 36 48
0.022351535 -0.075536542 0.505 135 14 31
0.022867497 -0.075386964 0.50400001 135 14 31
0.023334753 -0.075087816 0.50200003 145 12 26
0.023845159 -0.074938238 0.50100005 145 12 26
0.024353337 -0.074788652 0.5 150 13 24
0.024909113 -0.074788652 0.5 153 16 27
0.02541396 -0.074639075 0.49900001 155 16 25
0.025968624 -0.074639075 0.49900001 154 15 24
0.026523288 -0.074639075 0.49900001 154 12 22
0.027023692 -0.074489504 0.49800003 154 12 22
0.027577244 -0.074489504 0.49800003 157 10 20
0.028130798 -0.074489504 0.49800003 157 10 20
0.028626749 -0.074339919 0.49700001 158 10 20
0.029179191 -0.074339919 0.49700001 158 10 20
0.029671812 -0.074190348 0.49600002 160 12 22
0.03022314 -0.074190348 0.49600002 163 12 23
0.03077447 -0.074190348 0.49600002 164 13 24
0.031262647 -0.074040771 0.49500003 169 18 29
0.031812865 -0.074040771 0.49500003 170 19 30
0.032363083 -0.074040771 0.49500003 171 17 29
0.032913301 -0.074040771 0.49500003 167 13 25
0.033463519 -0.074040771 0.49500003 170 12 23
0.034013737 -0.074040771 0.49500003 171 13 24
0.034563959 -0.074040771 0.49500003 170 11 22
0.035043236 -0.073891193 0.49400002 172 13 24
0.035592344 -0.073891193 0.49400002 175 16 27
0.036141451 -0.073891193 0.49400002 175 16 27
0.036690556 -0.073891193 0.49400002 178 16 28
0.037239663 -0.073891193 0.49400002 179 17 29
0.037788771 -0.073891193 0.49400002 178 16 26
0.038337875 -0.073891193 0.49400002 178 16 26
0.038886983 -0.073891193 0.49400002 177 15 25
0.039436091 -0.073891193 0.49400002 175 13 23
0.039985199 -0.073891193 0.49400002 175 13 25
0.040534303 -0.073891193 0.49400002 177 15 27
0.04108341 -0.073891193 0.49400002 179 14 27
0.041716795 -0.074040771 0.49500003 179 14 27
0.042267013 -0.074040771 0.49500003 174 8 24
0.042817231 -0.074040771 0.49500003 174 8 24
0.043367449 -0.074040771 0.49500003 174 8 24
0.043917667 -0.074040771 0.49500003 175 9 25
0.044467889 -0.074040771 0.49500003 178 15 30
0.04501811 -0.074040771 0.49500003 180 17 32
0.045568328 -0.074040771 0.49500003 180 17 32
0.046118546 -0.074040771 0.49500003 180 17 32
0.046668764 -0.074040771 0.49500003 180 17 32
0.047218982 -0.074040771 0.49500003 181 18 33
0.0477692 -0.074040771 0.49500003 182 19 34
0.048319418 -0.074040771 0.49500003 182 20 32
0.048869636 -0.074040771 0.49500003 181 19 31
0.049419858 -0.074040771 0.49500003 179 17 29
0.049970075 -0.074040771 0.49500003 178 16 28
0.050520293 -0.074040771 0.49500003 178 16 28
0.051070511 -0.074040771 0.49500003 177 15 27
0.051620729 -0.074040771 0.49500003 179 14 27
0.052170947 -0.074040771 0.49500003 180 15 28
0.052721165 -0.074040771 0.49500003 180 15 28
0.053271383 -0.074040771 0.49500003 179 14 27
0.053821601 -0.074040771 0.49500003 176 11 24
0.054481663 -0.074190348 0.49600002 177 12 25
0.055032991 -0.074190348 0.49600002 177 15 27
0.055584323 -0.074190348 0.49600002 175 13 25
0.056135651 -0.074190348 0.49600002 174 12 24
0.056686983 -0.074190348 0.49600002 173 11 23
0.057238311 -0.074190348 0.49600002 172 10 22
0.057906151 -0.074339919 0.49700001 172 10 22
0.058458593 -0.074339919 0.49700001 173 11 23
0.059011035 -0.074339919 0.49700001 173 11 23
0.059563477 -0.074339919 0.49700001 173 10 25
0.060236879 -0.074489504 0.49800003 174 11 26
0.060790431 -0.074489504 0.49800003 172 12 26
0.061467163 -0.074639075 0.49900001 172 12 26
0.062021829 -0.074639075 0.49900001 171 12 28
0.062701896 -0.074788652 0.5 171 12 28
0.063257672 -0.074788652 0.5 166 14 32
0.063941084 -0.074938238 0.50100005 166 14 32
0.06449797 -0.074938238 0.50100005 161 15 36
0.065184705 -0.075087816 0.50200003 164 18 39
0.06587366 -0.075237386 0.50300002 160 24 43
0.066432774 -0.075237386 0.50300002 163 27 46
0.067125067 -0.075386964 0.50400001 156 30 46
0.067685291 -0.075386964 0.50400001 156 30 46
0.068380922 -0.075536542 0.505 144 38 54
0.069078781 -0.075686119 0.50600004 154 48 64
0.01757358 -0.076162934 0.51300001 114 36 47
0.018108439 -0.076014467 0.51200002 111 33 44
0.021270907 -0.075123675 0.50600004 131 20 36
0.021790201 -0.074975207 0.505 131 20 36
0.022307275 -0.07482674 0.50400001 145 13 29
0.022776755 -0.074529812 0.50200003 144 12 28
0.02328827 -0.074381351 0.50100005 149 9 23
0.02379756 -0.074232876 0.5 149 9 23
0.024353337 -0.074232876 0.5 154 10 21
0.024859294 -0.074084416 0.49900001 155 11 22
0.02541396 -0.074084416 0.49900001 157 13 22
0.025968624 -0.074084416 0.49900001 158 14 23
0.026470136 -0.073935948 0.49800003 159 12 22
0.027023692 -0.073935948 0.49800003 159 12 22
0.027521867 -0.073787481 0.49700001 160 13 20
0.028074309 -0.073787481 0.49700001 158 11 18
0.028626749 -0.073787481 0.49700001 160 10 18
0.029120483 -0.073639013 0.49600002 163 13 21
0.029671812 -0.073639013 0.49600002 163 13 21
0.030162208 -0.073490553 0.49500003 163 12 23
0.030712428 -0.073490553 0.49500003 164 13 24
0.031262647 -0.073490553 0.49500003 172 21 32
0.031812865 -0.073490553 0.49500003 171 20 31
0.032363083 -0.073490553 0.49500003 172 19 28
0.032846808 -0.073342085 0.49400002 169 16 25
0.033395916 -0.073342085 0.49400002 169 14 24
0.033945024 -0.073342085 0.49400002 172 17 27
0.034494128 -0.073342085 0.49400002 182 23 34
0.035043236 -0.073342085 0.49400002 183 24 35
0.035592344 -0.073342085 0.49400002 179 20 31
0.036141451 -0.073342085 0.49400002 177 18 29
0.036690556 -0.073342085 0.49400002 178 19 30
0.037239663 -0.073342085 0.49400002 179 20 31
0.037788771 -0.073342085 0.49400002 178 19 30
0.038337875 -0.073342085 0.49400002 176 17 28
0.038886983 -0.073342085 0.49400002 177 15 27
0.039436091 -0.073342085 0.49400002 177 15 27
0.039985199 -0.073342085 0.49400002 175 13 25
0.040534303 -0.073342085 0.49400002 177 15 27
0.04108341 -0.073342085 0.49400002 179 16 31
0.041632518 -0.073342085 0.49400002 180 17 32
0.042181626 -0.073342085 0.49400002 177 14 29
0.04273073 -0.073342085 0.49400002 167 4 19
0.043279838 -0.073342085 0.49400002 173 10 25
0.043917667 -0.073490553 0.49500003 178 15 30
0.044467889 -0.073490553 0.49500003 178 15 30
0.04501811 -0.073490553 0.49500003 179 19 33
0.045568328 -0.073490553 0.49500003 179 19 33
0.046118546 -0.073490553 0.49500003 178 18 32
0.046668764 -0.073490553 0.49500003 178 18 32
0.047218982 -0.073490553 0.49500003 179 19 33
0.0477692 -0.073490553 0.49500003 179 19 33
0.048319418 -0.073490553 0.49500003 181 18 33
0.048869636 -0.073490553 0.49500003 180 17 32
0.049419858 -0.073490553 0.49500003 179 17 29
0.049970075 -0.073490553 0.49500003 178 16 28
0.050520293 -0.073490553 0.49500003 178 16 28
0.051070511 -0.073490553 0.49500003 177 15 27
0.051620729 -0.073490553 0.49500003 177 15 27
0.052170947 -0.073490553 0.49500003 178 16 28
0.052721165 -0.073490553 0.49500003 178 16 28
0.053271383 -0.073490553 0.49500003 175 13 25
0.053821601 -0.073490553 0.49500003 174 12 24
0.054371823 -0.073490553 0.49500003 174 12 24
0.054922041 -0.073490553 0.49500003 173 11 23
0.055584323 -0.073639013 0.49600002 174 12 24
0.056135651 -0.073639013 0.49600002 174 12 24
0.056686983 -0.073639013 0.49600002 173 11 23
0.057238311 -0.073639013 0.49600002 172 10 22
0.057789642 -0.073639013 0.49600002 171 9 21
0.058458593 -0.073787481 0.49700001 171 9 21
0.059011035 -0.073787481 0.49700001 172 10 22
0.059563477 -0.073787481 0.49700001 172 9 24
0.060236879 -0.073935948 0.49800003 174 11 26
0.060790431 -0.073935948 0.49800003 172 12 26
0.061467163 -0.074084416 0.49900001 172 12 26
0.062021829 -0.074084416 0.49900001 171 12 28
0.062576495 -0.074084416 0.49900001 171 12 28
0.063257672 -0.074232876 0.5 168 13 32
0.063813448 -0.074232876 0.5 168 13 32
0.06449797 -0.074381351 0.50100005 163 15 34
0.065054856 -0.074381351 0.50100005 166 18 37
0.065742701 -0.074529812 0.50200003 162 24 42
0.066432774 -0.074678279 0.50300002 163 25 43
0.066991888 -0.074678279 0.50300002 155 31 44
0.067685291 -0.07482674 0.50400001 163 39 52
0.068380922 -0.074975207 0.505 159 50 65
0.068942249 -0.074975207 0.505 159 50 65
0.017505068 -0.075298004 0.51100004 124 37 49
0.018073073 -0.075298004 0.51100004 118 31 43
0.021228867 -0.074413873 0.505 139 16 34
0.021747053 -0.074266516 0.50400001 141 18 36
0.022263015 -0.074119166 0.50300002 152 15 30
0.022776755 -0.073971815 0.50200003 149 12 27
0.02328827 -0.073824458 0.50100005 153 8 22
0.02379756 -0.0736771 0.5 153 8 22
0.024353337 -0.0736771 0.5 155 8 18
0.024859294 -0.07352975 0.49900001 156 9 19
0.02541396 -0.07352975 0.49900001 160 13 20
0.025916584 -0.073382393 0.49800003 162 15 22
0.026470136 -0.073382393 0.49800003 164 14 22
0.026969425 -0.073235042 0.49700001 163 13 21
0.027521867 -0.073235042 0.49700001 164 11 20
0.028074309 -0.073235042 0.49700001 161 8 17
0.028569153 -0.073087685 0.49600002 164 11 20
0.029120483 -0.073087685 0.49600002 165 12 21
0.029671812 -0.073087685 0.49600002 165 12 21
0.030162208 -0.072940335 0.49500003 167 12 22
0.030712428 -0.072940335 0.49500003 170 15 25
0.031262647 -0.072940335 0.49500003 174 19 29
0.031748597 -0.072792977 0.49400002 174 19 29
0.032297704 -0.072792977 0.49400002 172 17 27
0.032846808 -0.072792977 0.49400002 170 15 25
0.033395916 -0.072792977 0.49400002 170 15 25
0.033945024 -0.072792977 0.49400002 175 20 30
0.034494128 -0.072792977 0.49400002 180 21 32
0.035043236 -0.072792977 0.49400002 180 21 32
0.035592344 -0.072792977 0.49400002 179 20 31
0.036141451 -0.072792977 0.49400002 179 20 31
0.036690556 -0.072792977 0.49400002 182 23 34
0.037239663 -0.072792977 0.49400002 182 23 34
0.037788771 -0.072792977 0.49400002 179 20 31
0.038337875 -0.072792977 0.49400002 173 14 25
0.038886983 -0.072792977 0.49400002 175 16 27
0.039436091 -0.072792977 0.49400002 176 17 28
0.039985199 -0.072792977 0.49400002 176 17 28
0.040534303 -0.072792977 0.49400002 178 19 30
0.04108341 -0.072792977 0.49400002 183 23 37
0.041632518 -0.072792977 0.49400002 184 24 38
0.042181626 -0.072792977 0.49400002 185 25 39
0.04273073 -0.072792977 0.49400002 183 23 37
0.043279838 -0.072792977 0.49400002 183 23 37
0.043828946 -0.072792977 0.49400002 179 19 35
0.04437805 -0.072792977 0.49400002 182 22 38
0.044927161 -0.072792977 0.49400002 183 24 38
0.045476269 -0.072792977 0.49400002 184 25 39
0.046025377 -0.072792977 0.49400002 184 25 39
0.046574481 -0.072792977 0.49400002 183 24 38
0.047123589 -0.072792977 0.49400002 181 22 36
0.047672696 -0.072792977 0.49400002 178 19 33
0.048221804 -0.072792977 0.49400002 178 19 33
0.048770908 -0.072792977 0.49400002 177 18 32
0.049320016 -0.072792977 0.49400002 178 18 32
0.049869124 -0.072792977 0.49400002 179 19 33
0.050418228 -0.072792977 0.49400002 179 20 31
0.050967336 -0.072792977 0.49400002 177 18 29
0.051620729 -0.072940335 0.49500003 177 18 29
0.052170947 -0.072940335 0.49500003 177 18 29
0.052721165 -0.072940335 0.49500003 177 18 29
0.053271383 -0.072940335 0.49500003 177 18 29
0.053821601 -0.072940335 0.49500003 173 14 25
0.054371823 -0.072940335 0.49500003 171 12 23
0.054922041 -0.072940335 0.49500003 172 10 22
0.055584323 -0.073087685 0.49600002 172 10 22
0.056135651 -0.073087685 0.49600002 173 11 23
0.056686983 -0.073087685 0.49600002 171 12 23
0.057238311 -0.073087685 0.49600002 172 10 22
0.057789642 -0.073087685 0.49600002 171 9 21
0.05834097 -0.073087685 0.49600002 171 8 23
0.059011035 -0.073235042 0.49700001 173 10 25
0.059563477 -0.073235042 0.49700001 174 11 26
0.060236879 -0.073382393 0.49800003 174 11 26
0.060790431 -0.073382393 0.49800003 172 12 26
0.061343987 -0.073382393 0.49800003 172 12 26
0.062021829 -0.07352975 0.49900001 171 12 28
0.062576495 -0.07352975 0.49900001 171 12 28
0.063257672 -0.0736771 0.5 168 11 29
0.063813448 -0.0736771 0.5 170 13 31
0.06449797 -0.073824458 0.50100005 164 16 33
0.065054856 -0.073824458 0.50100005 166 18 35
0.065742701 -0.073971815 0.50200003 161 23 41
0.066432774 -0.074119166 0.50300002 163 25 43
0.066991888 -0.074119166 0.50300002 155 31 44
0.067550994 -0.074119166 0.50300002 159 35 48
0.068245515 -0.074266516 0.50400001 151 40 56
0.068942249 -0.074413873 0.505 151 40 56
0.017470812 -0.074583761 0.51000005 122 24 40
0.018037705 -0.074583761 0.51000005 121 23 39
0.018568115 -0.074437506 0.509 123 22 34
0.019622272 -0.074145027 0.50700003 123 22 34
0.020146016 -0.073998787 0.50600004 122 21 33
0.020667532 -0.073852539 0.505 127 16 32
0.02118683 -0.073706299 0.50400001 146 13 34
0.021703904 -0.073560052 0.50300002 146 13 34
0.022218755 -0.073413812 0.50200003 157 9 26
0.022731382 -0.073267572 0.50100005 157 9 26
0.02328827 -0.073267572 0.50100005 159 8 19
0.02379756 -0.073121324 0.5 160 9 20
0.02430463 -0.072975084 0.49900001 162 7 17
0.024859294 -0.072975084 0.49900001 162 7 17
0.02536303 -0.072828844 0.49800003 163 5 16
0.025916584 -0.072828844 0.49800003 164 6 17
0.026470136 -0.072828844 0.49800003 164 6 15
0.026969425 -0.072682597 0.49700001 165 7 16
0.027521867 -0.072682597 0.49700001 165 7 16
0.028017823 -0.072536357 0.49600002 165 7 16
0.028569153 -0.072536357 0.49600002 168 10 19
0.029120483 -0.072536357 0.49600002 169 11 20
0.02961199 -0.072390117 0.49500003 169 11 20
0.030162208 -0.072390117 0.49500003 167 12 22
0.030650381 -0.072243869 0.49400002 170 15 25
0.031199489 -0.072243869 0.49400002 172 17 27
0.031748597 -0.072243869 0.49400002 173 18 28
0.032297704 -0.072243869 0.49400002 172 17 27
0.032846808 -0.072243869 0.49400002 170 15 25
0.033395916 -0.072243869 0.49400002 170 15 25
0.033945024 -0.072243869 0.49400002 173 18 28
0.034494128 -0.072243869 0.49400002 178 19 30
0.035043236 -0.072243869 0.49400002 179 20 31
0.035520297 -0.072097629 0.49300003 179 20 31
0.03606829 -0.072097629 0.49300003 179 20 31
0.036616284 -0.072097629 0.49300003 182 23 34
0.037164282 -0.072097629 0.49300003 182 23 34
0.037712276 -0.072097629 0.49300003 176 17 31
0.03826027 -0.072097629 0.49300003 182 23 37
0.038808268 -0.072097629 0.49300003 192 33 47
0.039436091 -0.072243869 0.49400002 171 12 26
0.039985199 -0.072243869 0.49400002 171 12 26
0.040534303 -0.072243869 0.49400002 178 19 33
0.04108341 -0.072243869 0.49400002 182 23 37
0.041632518 -0.072243869 0.49400002 183 24 38
0.042181626 -0.072243869 0.49400002 183 24 38
0.04273073 -0.072243869 0.49400002 183 24 38
0.043279838 -0.072243869 0.49400002 183 24 40
0.043828946 -0.072243869 0.49400002 182 23 39
0.04437805 -0.072243869 0.49400002 182 23 39
0.044927161 -0.072243869 0.49400002 180 24 37
0.045476269 -0.072243869 0.49400002 180 24 37
0.046025377 -0.072243869 0.49400002 180 24 37
0.046574481 -0.072243869 0.49400002 182 26 39
0.047123589 -0.072243869 0.49400002 181 25 38
0.047672696 -0.072243869 0.49400002 180 24 37
0.048221804 -0.072243869 0.49400002 179 23 36
0.048770908 -0.072243869 0.49400002 179 25 37
0.049320016 -0.072243869 0.49400002 177 21 34
0.049869124 -0.072243869 0.49400002 175 19 32
0.050418228 -0.072243869 0.49400002 177 19 30
0.050967336 -0.072243869 0.49400002 176 18 29
0.051516443 -0.072243869 0.49400002 176 17 28
0.052065551 -0.072243869 0.49400002 175 16 27
0.052721165 -0.072390117 0.49500003 175 16 27
0.053271383 -0.072390117 0.49500003 176 17 28
0.053821601 -0.072390117 0.49500003 173 14 25
0.054371823 -0.072390117 0.49500003 171 12 23
0.054922041 -0.072390117 0.49500003 171 12 23
0.055472258 -0.072390117 0.49500003 171 12 23
0.056135651 -0.072536357 0.49600002 172 13 24
0.056686983 -0.072536357 0.49600002 172 13 24
0.057238311 -0.072536357 0.49600002 172 10 22
0.057789642 -0.072536357 0.49600002 171 9 21
0.05834097 -0.072536357 0.49600002 171 8 23
0.059011035 -0.072682597 0.49700001 173 10 25
0.059563477 -0.072682597 0.49700001 174 11 26
0.060115919 -0.072682597 0.49700001 174 11 26
0.060790431 -0.072828844 0.49800003 171 11 25
0.061343987 -0.072828844 0.49800003 170 10 24
0.062021829 -0.072975084 0.49900001 170 10 26
0.062576495 -0.072975084 0.49900001 170 10 26
0.063257672 -0.073121324 0.5 167 10 28
0.063813448 -0.073121324 0.5 169 12 30
0.06449797 -0.073267572 0.50100005 166 18 35
0.065054856 -0.073267572 0.50100005 168 20 37
0.065742701 -0.073413812 0.50200003 161 26 40
0.066300705 -0.073413812 0.50200003 162 27 41
0.066991888 -0.073560052 0.50300002 158 32 46
0.067550994 -0.073560052 0.50300002 159 33 47
0.068245515 -0.073706299 0.50400001 155 40 55
0.068942249 -0.073852539 0.505 161 46 61
0.017436555 -0.073871732 0.509 123 17 31
0.018002335 -0.073871732 0.509 125 19 33
0.018531635 -0.073726602 0.50800002 128 19 34
0.019058714 -0.073581472 0.50700003 128 19 34
0.01958357 -0.073436342 0.50600004 125 16 29
0.020106198 -0.073291205 0.505 125 16 29
0.020626608 -0.073146075 0.50400001 131 10 27
0.021144792 -0.073000945 0.50300002 148 7 28
0.021660756 -0.072855815 0.50200003 149 8 29
0.022174494 -0.072710685 0.50100005 160 3 23
0.022731382 -0.072710685 0.50100005 160 3 23
0.023241784 -0.072565548 0.5 166 3 18
0.023749966 -0.072420418 0.49900001 166 3 18
0.02430463 -0.072420418 0.49900001 166 4 16
0.024859294 -0.072420418 0.49900001 166 4 16
0.02536303 -0.072275288 0.49800003 168 3 14
0.025916584 -0.072275288 0.49800003 168 3 14
0.026470136 -0.072275288 0.49800003 167 2 13
0.026969425 -0.072130159 0.49700001 168 3 14
0.027521867 -0.072130159 0.49700001 167 5 15
0.028017823 -0.071985029 0.49600002 168 6 16
0.028569153 -0.071985029 0.49600002 171 9 19
0.029061772 -0.071839899 0.49500003 169 10 19
0.02961199 -0.071839899 0.49500003 170 11 20
0.030162208 -0.071839899 0.49500003 170 12 23
0.030650381 -0.071694762 0.49400002 171 13 24
0.031199489 -0.071694762 0.49400002 172 14 25
0.031748597 -0.071694762 0.49400002 174 16 27
0.032297704 -0.071694762 0.49400002 172 17 27
0.032846808 -0.071694762 0.49400002 169 14 24
0.033328313 -0.071549632 0.49300003 172 17 27
0.033876307 -0.071549632 0.49300003 173 18 28
0.034424305 -0.071549632 0.49300003 177 19 30
0.034972299 -0.071549632 0.49300003 177 19 30
0.035520297 -0.071549632 0.49300003 177 18 32
0.03606829 -0.071549632 0.49300003 178 19 33
0.036616284 -0.071549632 0.49300003 185 29 44
0.037164282 -0.071549632 0.49300003 188 32 47
0.037712276 -0.071549632 0.49300003 187 31 46
0.03826027 -0.071549632 0.49300003 187 31 46
0.038808268 -0.071549632 0.49300003 184 28 43
0.039356261 -0.071549632 0.49300003 177 21 36
0.039904255 -0.071549632 0.49300003 179 23 38
0.040452253 -0.071549632 0.49300003 193 45 57
0.04108341 -0.071694762 0.49400002 185 37 49
0.041632518 -0.071694762 0.49400002 179 31 43
0.042181626 -0.071694762 0.49400002 184 36 48
0.04273073 -0.071694762 0.49400002 185 37 49
0.043279838 -0.071694762 0.49400002 184 36 48
0.043828946 -0.071694762 0.49400002 182 34 46
0.04437805 -0.071694762 0.49400002 183 35 47
0.044927161 -0.071694762 0.49400002 184 36 48
0.045476269 -0.071694762 0.49400002 180 32 44
0.046025377 -0.071694762 0.49400002 180 32 44
0.046574481 -0.071694762 0.49400002 180 32 44
0.047123589 -0.071694762 0.49400002 176 25 36
0.047672696 -0.071694762 0.49400002 165 14 25
0.048221804 -0.071694762 0.49400002 178 27 38
0.048770908 -0.071694762 0.49400002 178 27 38
0.049320016 -0.071694762 0.49400002 179 25 37
0.049869124 -0.071694762 0.49400002 175 21 33
0.050418228 -0.071694762 0.49400002 174 18 31
0.050967336 -0.071694762 0.49400002 173 17 30
0.051516443 -0.071694762 0.49400002 175 16 27
0.052065551 -0.071694762 0.49400002 175 16 27
0.052614655 -0.071694762 0.49400002 173 14 25
0.053271383 -0.071839899 0.49500003 173 14 25
0.053821601 -0.071839899 0.49500003 172 13 24
0.054371823 -0.071839899 0.49500003 172 13 24
0.054922041 -0.071839899 0.49500003 173 14 25
0.055472258 -0.071839899 0.49500003 173 14 25
0.056022476 -0.071839899 0.49500003 175 16 27
0.056686983 -0.071985029 0.49600002 173 14 25
0.057238311 -0.071985029 0.49600002 170 10 24
0.057789642 -0.071985029 0.49600002 168 8 22
0.05834097 -0.071985029 0.49600002 170 7 24
0.058892302 -0.071985029 0.49600002 172 9 26
0.059563477 -0.072130159 0.49700001 173 10 27
0.060115919 -0.072130159 0.49700001 172 9 26
0.060790431 -0.072275288 0.49800003 170 10 26
0.061343987 -0.072275288 0.49800003 170 10 26
0.062021829 -0.072420418 0.49900001 170 10 26
0.062576495 -0.072420418 0.49900001 170 10 26
0.063257672 -0.072565548 0.5 167 10 30
0.063813448 -0.072565548 0.5 168 11 31
0.06449797 -0.072710685 0.50100005 166 18 37
0.065054856 -0.072710685 0.50100005 169 21 40
0.065742701 -0.072855815 0.50200003 162 25 40
0.066300705 -0.072855815 0.50200003 162 25 40
0.066991888 -0.073000945 0.50300002 156 27 42
0.067550994 -0.073000945 0.50300002 157 28 43
0.068110108 -0.073000945 0.50300002 149 29 43
0.068805732 -0.073146075 0.50400001 155 35 49
0.016304994 -0.07330595 0.509 124 11 27
0.016870774 -0.07330595 0.509 125 12 28
0.017402299 -0.07316193 0.50800002 127 12 27
0.017966967 -0.07316193 0.50800002 130 15 30
0.018495155 -0.07301791 0.50700003 131 16 31
0.019021122 -0.072873898 0.50600004 131 16 31
0.019544866 -0.072729871 0.505 124 9 24
0.020066386 -0.072585851 0.50400001 132 8 23
0.020585682 -0.072441831 0.50300002 134 10 25
0.021144792 -0.072441831 0.50300002 149 5 25
0.021660756 -0.072297819 0.50200003 151 7 27
0.022174494 -0.072153799 0.50100005 163 3 22
0.022686008 -0.072009772 0.5 162 2 21
0.023241784 -0.072009772 0.5 166 4 16
0.023749966 -0.071865752 0.49900001 166 4 16
0.02430463 -0.071865752 0.49900001 168 3 14
0.024809478 -0.07172174 0.49800003 168 3 14
0.02536303 -0.07172174 0.49800003 169 2 14
0.025916584 -0.07172174 0.49800003 169 2 14
0.026416983 -0.071577713 0.49700001 169 2 14
0.026969425 -0.071577713 0.49700001 169 2 14
0.027466493 -0.071433701 0.49600002 169 4 15
0.028017823 -0.071433701 0.49600002 170 5 16
0.028569153 -0.071433701 0.49600002 173 8 19
0.029061772 -0.071289681 0.49500003 172 10 20
0.02961199 -0.071289681 0.49500003 173 11 21
0.030101273 -0.071145654 0.49400002 171 12 23
0.030650381 -0.071145654 0.49400002 172 13 24
0.031199489 -0.071145654 0.49400002 172 14 25
0.031684328 -0.071001641 0.49300003 175 17 28
0.032232322 -0.071001641 0.49300003 176 21 31
0.032780319 -0.071001641 0.49300003 179 24 34
0.033328313 -0.071001641 0.49300003 188 35 44
0.033876307 -0.071001641 0.49300003 184 31 40
0.034424305 -0.071001641 0.49300003 176 25 36
0.034972299 -0.071001641 0.49300003 186 35 46
0.035520297 -0.071001641 0.49300003 193 46 58
0.03606829 -0.071001641 0.49300003 188 41 53
0.036616284 -0.071001641 0.49300003 183 38 52
0.037164282 -0.071001641 0.49300003 184 39 53
0.037712276 -0.071001641 0.49300003 184 39 53
0.03826027 -0.071001641 0.49300003 181 36 50
0.038808268 -0.071001641 0.49300003 179 34 48
0.039356261 -0.071001641 0.49300003 181 36 50
0.039904255 -0.071001641 0.49300003 188 43 57
0.040452253 -0.071001641 0.49300003 189 44 58
0.041000247 -0.071001641 0.49300003 188 43 57
0.041632518 -0.071145654 0.49400002 180 35 49
0.042181626 -0.071145654 0.49400002 181 36 50
0.04273073 -0.071145654 0.49400002 182 37 51
0.043279838 -0.071145654 0.49400002 187 42 56
0.043828946 -0.071145654 0.49400002 183 38 52
0.04437805 -0.071145654 0.49400002 181 36 50
0.044927161 -0.071145654 0.49400002 182 37 51
0.045384213 -0.071001641 0.49300003 184 39 53
0.045932207 -0.071001641 0.49300003 184 37 49
0.046480201 -0.071001641 0.49300003 182 35 47
0.047028199 -0.071001641 0.49300003 172 24 36
0.047576193 -0.071001641 0.49300003 168 20 32
0.04812419 -0.071001641 0.49300003 179 28 39
0.048672184 -0.071001641 0.49300003 180 29 40
0.049320016 -0.071145654 0.49400002 184 30 42
0.049869124 -0.071145654 0.49400002 180 26 38
0.050418228 -0.071145654 0.49400002 174 18 31
0.050967336 -0.071145654 0.49400002 174 18 31
0.051516443 -0.071145654 0.49400002 175 16 30
0.052065551 -0.071145654 0.49400002 174 15 29
0.052614655 -0.071145654 0.49400002 172 13 24
0.053163763 -0.071145654 0.49400002 172 13 24
0.053821601 -0.071289681 0.49500003 172 13 24
0.054371823 -0.071289681 0.49500003 175 16 27
0.054922041 -0.071289681 0.49500003 178 20 31
0.055472258 -0.071289681 0.49500003 179 21 32
0.056022476 -0.071289681 0.49500003 178 20 31
0.056572694 -0.071289681 0.49500003 177 19 30
0.057238311 -0.071433701 0.49600002 169 9 23
0.057789642 -0.071433701 0.49600002 168 8 22
0.05834097 -0.071433701 0.49600002 170 7 24
0.058892302 -0.071433701 0.49600002 171 8 25
0.059563477 -0.071577713 0.49700001 172 9 26
0.060115919 -0.071577713 0.49700001 173 10 27
0.060790431 -0.07172174 0.49800003 171 11 27
0.061343987 -0.07172174 0.49800003 171 11 27
0.062021829 -0.071865752 0.49900001 169 9 28
0.062576495 -0.071865752 0.49900001 169 9 28
0.063257672 -0.072009772 0.5 167 10 30
0.063813448 -0.072009772 0.5 168 11 31
0.06449797 -0.072153799 0.50100005 165 16 33
0.065054856 -0.072153799 0.50100005 167 18 35
0.065611742 -0.072153799 0.50100005 163 23 39
0.066300705 -0.072297819 0.50200003 164 24 40
0.066991888 -0.072441831 0.50300002 158 27 40
0.067550994 -0.072441831 0.50300002 158 27 40
0.068245515 -0.072585851 0.50400001 153 31 44
0.068805732 -0.072585851 0.50400001 152 30 43
0.069503583 -0.072729871 0.505 142 33 50
0.070064917 -0.072729871 0.505 149 40 57
0.016272962 -0.072597265 0.50800002 131 13 29
0.01683763 -0.072597265 0.50800002 129 11 27
0.017368043 -0.072454356 0.50700003 131 11 25
0.017931599 -0.072454356 0.50700003 131 11 25
0.018458677 -0.072311454 0.50600004 133 13 27
0.019021122 -0.072311454 0.50600004 131 11 25
0.019544866 -0.072168536 0.505 129 9 23
0.020066386 -0.072025627 0.50400001 133 7 21
0.020585682 -0.071882725 0.50300002 134 8 22
0.021102756 -0.071739815 0.50200003 150 5 23
0.021617606 -0.071596913 0.50100005 152 7 25
0.022174494 -0.071596913 0.50100005 162 2 21
0.022686008 -0.071453996 0.5 162 2 21
0.023241784 -0.071453996 0.5 168 3 16
0.023749966 -0.071311086 0.49900001 164 5 14
0.02430463 -0.071311086 0.49900001 169 4 15
0.024809478 -0.071168184 0.49800003 169 4 15
0.02536303 -0.071168184 0.49800003 169 4 15
0.025916584 -0.071168184 0.49800003 169 4 15
0.026416983 -0.071025275 0.49700001 169 4 15
0.026969425 -0.071025275 0.49700001 168 3 14
0.027466493 -0.070882365 0.49600002 168 3 14
0.028017823 -0.070882365 0.49600002 169 4 15
0.028569153 -0.070882365 0.49600002 174 9 20
0.029061772 -0.070739463 0.49500003 173 11 21
0.02961199 -0.070739463 0.49500003 174 12 22
0.030101273 -0.070596553 0.49400002 173 14 23
0.030650381 -0.070596553 0.49400002 175 16 25
0.031199489 -0.070596553 0.49400002 178 19 28
0.031684328 -0.070453644 0.49300003 179 20 29
0.032232322 -0.070453644 0.49300003 176 21 31
0.032780319 -0.070453644 0.49300003 179 24 34
0.033328313 -0.070453644 0.49300003 180 30 38
0.033876307 -0.070453644 0.49300003 180 30 38
0.034424305 -0.070453644 0.49300003 178 31 43
0.034972299 -0.070453644 0.49300003 190 43 55
0.035520297 -0.070453644 0.49300003 191 51 63
0.03606829 -0.070453644 0.49300003 193 53 65
0.036616284 -0.070453644 0.49300003 195 58 71
