ply
format ascii 1.0
comment PCL generated
element vertex 1109
property float x
property float y
property float z
property uchar red
property uchar green
property uchar blue
element camera 0
property float view_px
property float view_py
property float view_pz
property float x_axisx
property float x_axisy
property float x_axisz
property float y_axisx
property float y_axisy
property float y_axisz
property float z_axisx
property float z_axisy
property float z_axisz
property float focal
property float scalex
property float scaley
property float centerx
property float centery
property int viewportx
property int viewporty
property float k1
property float k2
end_header
0.054481663 -0.11168078 0.49600002 140 6 13
0.055032991 -0.11168078 0.49600002 138 6 11
0.055584323 -0.11168078 0.49600002 138 6 11
0.056135651 -0.11168078 0.49600002 138 6 11
0.056801267 -0.11190595 0.49700001 139 7 12
0.057353709 -0.11190595 0.49700001 142 10 15
0.057906151 -0.11190595 0.49700001 142 10 15
0.058576215 -0.11213111 0.49800003 140 9 11
0.059129771 -0.11213111 0.49800003 139 8 10
0.059683323 -0.11213111 0.49800003 138 7 9
0.060236879 -0.11213111 0.49800003 138 7 9
0.060912501 -0.11235628 0.49900001 137 5 10
0.061467163 -0.11235628 0.49900001 137 5 10
0.06214612 -0.11258143 0.5 138 8 14
0.062701896 -0.11258143 0.5 139 9 15
0.06338419 -0.1128066 0.50100005 137 10 15
0.063941084 -0.1128066 0.50100005 139 12 17
0.06449797 -0.1128066 0.50100005 138 13 20
0.065184705 -0.11303177 0.50200003 139 14 21
0.065742701 -0.11303177 0.50200003 138 15 21
0.066432774 -0.11325692 0.50300002 139 16 22
0.067125067 -0.11348209 0.50400001 138 17 25
0.067685291 -0.11348209 0.50400001 141 20 28
0.068380922 -0.11370724 0.505 140 24 32
0.069078781 -0.11393242 0.50600004 141 25 33
0.069641225 -0.11393242 0.50600004 137 28 34
0.070203669 -0.11393242 0.50600004 140 31 37
0.070905969 -0.11415758 0.50700003 138 33 40
0.071469523 -0.11415758 0.50700003 138 33 40
0.072033077 -0.11415758 0.50700003 133 36 47
0.072596639 -0.11415758 0.50700003 131 34 45
0.027240749 -0.11247376 0.50200003 119 3 11
0.028300261 -0.11224972 0.50100005 119 3 7
0.028857149 -0.11224972 0.50100005 121 2 7
0.029355323 -0.11202566 0.5 121 2 7
0.029911099 -0.11202566 0.5 122 4 6
0.030405942 -0.11180161 0.49900001 123 3 6
0.030960606 -0.11180161 0.49900001 123 3 6
0.031515274 -0.11180161 0.49900001 125 3 6
0.032005671 -0.11157756 0.49800003 125 3 6
0.032559223 -0.11157756 0.49800003 125 3 4
0.033112776 -0.11157756 0.49800003 125 3 4
0.033666328 -0.11157756 0.49800003 126 2 4
0.034151167 -0.1113535 0.49700001 127 3 5
0.034703609 -0.1113535 0.49700001 130 6 8
0.035256051 -0.1113535 0.49700001 130 6 8
0.035808489 -0.1113535 0.49700001 128 4 6
0.036287773 -0.11112946 0.49600002 127 3 5
0.036839101 -0.11112946 0.49600002 130 3 6
0.037390433 -0.11112946 0.49600002 132 5 8
0.037941761 -0.11112946 0.49600002 132 5 8
0.038415484 -0.11090541 0.49500003 133 6 9
0.038965702 -0.11090541 0.49500003 135 5 9
0.039515924 -0.11090541 0.49500003 134 4 8
0.040066142 -0.11090541 0.49500003 134 4 8
0.04061636 -0.11090541 0.49500003 134 4 8
0.041166577 -0.11090541 0.49500003 135 3 8
0.041716795 -0.11090541 0.49500003 133 1 6
0.042267013 -0.11090541 0.49500003 133 1 6
0.042817231 -0.11090541 0.49500003 134 4 8
0.043367449 -0.11090541 0.49500003 135 5 9
0.043917667 -0.11090541 0.49500003 135 5 9
0.044467889 -0.11090541 0.49500003 136 6 10
0.04501811 -0.11090541 0.49500003 136 6 12
0.045568328 -0.11090541 0.49500003 134 4 10
0.046118546 -0.11090541 0.49500003 134 4 10
0.046668764 -0.11090541 0.49500003 134 4 10
0.047218982 -0.11090541 0.49500003 136 4 11
0.0477692 -0.11090541 0.49500003 136 4 11
0.048319418 -0.11090541 0.49500003 136 4 11
0.048869636 -0.11090541 0.49500003 136 4 11
0.049419858 -0.11090541 0.49500003 136 4 11
0.049970075 -0.11090541 0.49500003 136 4 11
0.050520293 -0.11090541 0.49500003 136 4 11
0.051173683 -0.11112946 0.49600002 136 4 11
0.051725011 -0.11112946 0.49600002 135 3 10
0.052276343 -0.11112946 0.49600002 135 3 10
0.052827671 -0.11112946 0.49600002 135 3 10
0.053379003 -0.11112946 0.49600002 135 3 10
0.053930331 -0.11112946 0.49600002 136 4 11
0.054481663 -0.11112946 0.49600002 137 5 12
0.055143945 -0.1113535 0.49700001 138 6 13
0.055696383 -0.1113535 0.49700001 138 6 13
0.056248825 -0.1113535 0.49700001 137 5 10
0.056801267 -0.1113535 0.49700001 138 6 11
0.057353709 -0.1113535 0.49700001 138 8 12
0.058022663 -0.11157756 0.49800003 138 8 12
0.058576215 -0.11157756 0.49800003 138 8 12
0.059129771 -0.11157756 0.49800003 137 7 11
0.059803165 -0.11180161 0.49900001 137 7 11
0.060357835 -0.11180161 0.49900001 137 7 11
0.060912501 -0.11180161 0.49900001 137 7 11
0.061590344 -0.11202566 0.5 137 7 11
0.06214612 -0.11202566 0.5 138 8 14
0.062827304 -0.11224972 0.50100005 138 8 14
0.06338419 -0.11224972 0.50100005 136 9 14
0.063941084 -0.11224972 0.50100005 137 10 15
0.064626709 -0.11247376 0.50200003 137 14 20
0.065314554 -0.11269782 0.50300002 139 16 22
0.06587366 -0.11269782 0.50300002 138 17 25
0.066564843 -0.11292186 0.50400001 138 17 25
0.067125067 -0.11292186 0.50400001 137 18 25
0.067819588 -0.11314591 0.505 140 21 28
0.068516329 -0.11336997 0.50600004 137 24 31
0.069078781 -0.11336997 0.50600004 138 25 32
0.069778852 -0.11359402 0.50700003 137 27 36
0.070342407 -0.11359402 0.50700003 140 30 39
0.070905969 -0.11359402 0.50700003 136 34 42
0.071610488 -0.11381807 0.50800002 136 34 42
0.072175153 -0.11381807 0.50800002 127 33 45
0.072739825 -0.11381807 0.50800002 117 23 35
0.02779875 -0.11191577 0.50200003 119 3 9
0.028857149 -0.11169283 0.50100005 121 2 7
0.029414037 -0.11169283 0.50100005 121 2 7
0.029911099 -0.11146988 0.5 121 3 5
0.030466875 -0.11146988 0.5 122 4 6
0.030960606 -0.11124694 0.49900001 123 3 6
0.031515274 -0.11124694 0.49900001 125 3 4
0.032069936 -0.11124694 0.49900001 125 3 4
0.032624602 -0.11124694 0.49900001 125 3 4
0.033112776 -0.11102401 0.49800003 125 3 4
0.033666328 -0.11102401 0.49800003 126 2 4
0.034219883 -0.11102401 0.49800003 126 2 4
0.034773435 -0.11102401 0.49800003 127 3 5
0.035256051 -0.11080106 0.49700001 128 4 6
0.035808489 -0.11080106 0.49700001 127 3 5
0.036360931 -0.11080106 0.49700001 127 3 5
0.036839101 -0.11057813 0.49600002 130 3 6
0.037390433 -0.11057813 0.49600002 130 3 6
0.037941761 -0.11057813 0.49600002 132 5 8
0.038493093 -0.11057813 0.49600002 132 5 8
0.039044421 -0.11057813 0.49600002 134 4 8
0.039595753 -0.11057813 0.49600002 134 4 8
0.040066142 -0.11035519 0.49500003 134 4 10
0.04061636 -0.11035519 0.49500003 134 4 10
0.041166577 -0.11035519 0.49500003 133 1 8
0.041716795 -0.11035519 0.49500003 133 1 8
0.042267013 -0.11035519 0.49500003 133 1 6
0.042817231 -0.11035519 0.49500003 135 5 9
0.043367449 -0.11035519 0.49500003 137 7 11
0.043917667 -0.11035519 0.49500003 138 8 12
0.044467889 -0.11035519 0.49500003 137 7 11
0.04501811 -0.11035519 0.49500003 135 5 11
0.045568328 -0.11035519 0.49500003 134 4 10
0.046118546 -0.11035519 0.49500003 134 4 10
0.046668764 -0.11035519 0.49500003 134 4 10
0.047218982 -0.11035519 0.49500003 134 4 10
0.0477692 -0.11035519 0.49500003 134 4 10
0.048417032 -0.11057813 0.49600002 135 5 11
0.048968364 -0.11057813 0.49600002 135 5 11
0.049519692 -0.11057813 0.49600002 135 5 11
0.050071023 -0.11057813 0.49600002 136 6 12
0.050622351 -0.11057813 0.49600002 135 4 13
0.051173683 -0.11057813 0.49600002 134 3 12
0.051725011 -0.11057813 0.49600002 135 3 10
0.052276343 -0.11057813 0.49600002 135 3 10
0.052827671 -0.11057813 0.49600002 135 3 10
0.053379003 -0.11057813 0.49600002 133 1 8
0.054039061 -0.11080106 0.49700001 133 1 8
0.054591503 -0.11080106 0.49700001 135 3 10
0.055143945 -0.11080106 0.49700001 135 5 11
0.055696383 -0.11080106 0.49700001 136 6 12
0.056248825 -0.11080106 0.49700001 137 7 13
0.056915559 -0.11102401 0.49800003 137 7 13
0.057469111 -0.11102401 0.49800003 137 7 11
0.058022663 -0.11102401 0.49800003 137 7 11
0.058576215 -0.11102401 0.49800003 137 7 11
0.059248503 -0.11124694 0.49900001 137 7 11
0.059803165 -0.11124694 0.49900001 137 7 11
0.060357835 -0.11124694 0.49900001 137 7 11
0.061034568 -0.11146988 0.5 137 7 11
0.061590344 -0.11146988 0.5 138 8 12
0.062270418 -0.11169283 0.50100005 136 9 14
0.062827304 -0.11169283 0.50100005 136 9 14
0.06338419 -0.11169283 0.50100005 134 9 16
0.064068705 -0.11191577 0.50200003 135 10 17
0.064626709 -0.11191577 0.50200003 135 14 22
0.065314554 -0.1121387 0.50300002 137 16 24
0.066004626 -0.11236164 0.50400001 137 18 25
0.06669692 -0.11258458 0.505 137 18 25
0.067258254 -0.11258458 0.505 135 19 25
0.067953885 -0.11280753 0.50600004 136 20 26
0.068651736 -0.11303046 0.50700003 136 23 30
0.069215298 -0.11303046 0.50700003 137 24 31
0.069778852 -0.11303046 0.50700003 134 26 34
0.070481151 -0.1132534 0.50800002 137 29 37
0.071045816 -0.1132534 0.50800002 134 33 43
0.071610488 -0.1132534 0.50800002 134 33 43
0.072175153 -0.1132534 0.50800002 123 43 55
0.027295014 -0.11157959 0.50300002 115 4 10
0.028356748 -0.11135777 0.50200003 119 3 9
0.028857149 -0.11113594 0.50100005 121 2 7
0.029414037 -0.11113594 0.50100005 121 2 7
0.029970923 -0.11113594 0.50100005 121 3 5
0.030466875 -0.1109141 0.5 122 4 6
0.031022651 -0.1109141 0.5 123 3 6
0.031578429 -0.1109141 0.5 123 3 4
0.032069936 -0.11069228 0.49900001 123 3 4
0.032624602 -0.11069228 0.49900001 125 3 4
0.033179268 -0.11069228 0.49900001 125 3 4
0.03373393 -0.11069228 0.49900001 125 3 4
0.034219883 -0.11047045 0.49800003 125 3 4
0.034773435 -0.11047045 0.49800003 126 2 4
0.035326988 -0.11047045 0.49800003 126 2 4
0.03588054 -0.11047045 0.49800003 127 3 5
0.036360931 -0.11024862 0.49700001 127 3 5
0.036913373 -0.11024862 0.49700001 128 4 6
0.037465815 -0.11024862 0.49700001 128 4 6
0.038018256 -0.11024862 0.49700001 130 3 6
0.038493093 -0.1100268 0.49600002 132 5 8
0.039044421 -0.1100268 0.49600002 132 5 10
0.039595753 -0.1100268 0.49600002 132 5 10
0.040147081 -0.1100268 0.49600002 134 4 10
0.040698409 -0.1100268 0.49600002 132 2 8
0.041249741 -0.1100268 0.49600002 132 2 8
0.041801069 -0.1100268 0.49600002 131 1 7
0.042352401 -0.1100268 0.49600002 131 1 7
0.042903729 -0.1100268 0.49600002 132 2 8
0.043455061 -0.1100268 0.49600002 135 5 11
0.044006389 -0.1100268 0.49600002 137 7 13
0.04455772 -0.1100268 0.49600002 136 6 12
0.045109052 -0.1100268 0.49600002 135 5 11
0.045660384 -0.1100268 0.49600002 132 2 8
0.046211712 -0.1100268 0.49600002 132 2 8
0.046763044 -0.1100268 0.49600002 134 4 10
0.047314372 -0.1100268 0.49600002 134 4 10
0.047865704 -0.1100268 0.49600002 134 4 10
0.048417032 -0.1100268 0.49600002 135 5 11
0.048968364 -0.1100268 0.49600002 135 5 11
0.049519692 -0.1100268 0.49600002 135 4 13
0.050071023 -0.1100268 0.49600002 135 4 13
0.050622351 -0.1100268 0.49600002 134 3 12
0.051173683 -0.1100268 0.49600002 132 1 10
0.051725011 -0.1100268 0.49600002 132 2 8
0.052276343 -0.1100268 0.49600002 132 2 8
0.052934177 -0.11024862 0.49700001 132 2 8
0.053486619 -0.11024862 0.49700001 132 2 8
0.054039061 -0.11024862 0.49700001 132 2 8
0.054591503 -0.11024862 0.49700001 134 4 10
0.055143945 -0.11024862 0.49700001 135 5 11
0.055808451 -0.11047045 0.49800003 136 6 12
0.056362003 -0.11047045 0.49800003 134 7 12
0.056915559 -0.11047045 0.49800003 134 7 12
0.057469111 -0.11047045 0.49800003 133 6 11
0.058139175 -0.11069228 0.49900001 134 7 12
0.058693837 -0.11069228 0.49900001 134 7 10
0.059248503 -0.11069228 0.49900001 134 7 10
0.059923012 -0.1109141 0.5 134 7 12
0.060478792 -0.1109141 0.5 134 7 12
0.061034568 -0.1109141 0.5 133 9 13
0.061713532 -0.11113594 0.50100005 134 10 14
0.062270418 -0.11113594 0.50100005 131 10 16
0.062952705 -0.11135777 0.50200003 132 11 17
0.063510709 -0.11135777 0.50200003 132 11 17
0.064196333 -0.11157959 0.50300002 132 11 17
0.06475544 -0.11157959 0.50300002 131 12 19
0.065444402 -0.11180142 0.50400001 134 15 22
0.066135585 -0.11202324 0.505 133 17 23
0.06669692 -0.11202324 0.505 134 18 24
0.06739144 -0.11224508 0.50600004 135 19 27
0.068088181 -0.11246691 0.50700003 136 20 28
0.068651736 -0.11246691 0.50700003 135 24 30
0.069351815 -0.11268874 0.50800002 136 25 31
0.069916479 -0.11268874 0.50800002 135 27 35
0.070619889 -0.11291056 0.509 137 29 37
0.071185671 -0.11291056 0.509 132 34 43
0.071751453 -0.11291056 0.509 130 32 41
0.072317228 -0.11291056 0.509 128 53 63
0.027854124 -0.11102048 0.50300002 116 3 8
0.028914748 -0.11079977 0.50200003 119 3 7
0.029472746 -0.11079977 0.50200003 119 3 7
0.029970923 -0.11057905 0.50100005 121 3 5
0.030527811 -0.11057905 0.50100005 121 3 5
0.0310847 -0.11057905 0.50100005 121 3 5
0.031641588 -0.11057905 0.50100005 121 3 5
0.032134205 -0.11035833 0.5 122 2 3
0.032689981 -0.11035833 0.5 123 3 4
0.033245757 -0.11035833 0.5 123 3 4
0.03373393 -0.11013761 0.49900001 125 3 4
0.034288596 -0.11013761 0.49900001 125 3 4
0.034843259 -0.11013761 0.49900001 125 3 4
0.035326988 -0.1099169 0.49800003 125 3 4
0.03588054 -0.1099169 0.49800003 126 4 5
0.036434095 -0.1099169 0.49800003 126 4 5
0.036987647 -0.1099169 0.49800003 128 4 6
0.037465815 -0.10969618 0.49700001 128 4 6
0.038018256 -0.10969618 0.49700001 128 4 6
0.038570698 -0.10969618 0.49700001 130 6 8
0.03912314 -0.10969618 0.49700001 132 5 10
0.039595753 -0.10947546 0.49600002 132 5 10
0.040147081 -0.10947546 0.49600002 130 3 8
0.040698409 -0.10947546 0.49600002 130 3 8
0.041249741 -0.10947546 0.49600002 129 2 7
0.041801069 -0.10947546 0.49600002 129 2 7
0.042352401 -0.10947546 0.49600002 129 2 7
0.042903729 -0.10947546 0.49600002 130 3 8
0.043455061 -0.10947546 0.49600002 132 5 10
0.044006389 -0.10947546 0.49600002 133 6 11
0.04455772 -0.10947546 0.49600002 132 5 10
0.045109052 -0.10947546 0.49600002 130 3 8
0.045660384 -0.10947546 0.49600002 130 3 8
0.046211712 -0.10947546 0.49600002 132 5 10
0.046763044 -0.10947546 0.49600002 132 5 10
0.047314372 -0.10947546 0.49600002 134 4 10
0.047865704 -0.10947546 0.49600002 135 5 11
0.048417032 -0.10947546 0.49600002 135 5 11
0.048968364 -0.10947546 0.49600002 135 5 11
0.049519692 -0.10947546 0.49600002 133 5 13
0.050071023 -0.10947546 0.49600002 133 5 13
0.050622351 -0.10947546 0.49600002 132 4 12
0.051276855 -0.10969618 0.49700001 132 4 12
0.051829293 -0.10969618 0.49700001 132 4 12
0.052381735 -0.10969618 0.49700001 133 5 13
0.052934177 -0.10969618 0.49700001 133 5 13
0.053486619 -0.10969618 0.49700001 134 6 14
0.054147795 -0.1099169 0.49800003 134 7 12
0.054701347 -0.1099169 0.49800003 134 7 12
0.055254899 -0.1099169 0.49800003 133 6 11
0.055808451 -0.1099169 0.49800003 133 6 11
0.056362003 -0.1099169 0.49800003 133 6 11
0.057029843 -0.11013761 0.49900001 129 2 7
0.057584509 -0.11013761 0.49900001 129 2 7
0.058139175 -0.11013761 0.49900001 133 6 11
0.058693837 -0.11013761 0.49900001 132 8 12
0.059367236 -0.11035833 0.5 132 8 12
0.059923012 -0.11035833 0.5 133 9 13
0.060599755 -0.11057905 0.50100005 135 11 15
0.061156642 -0.11057905 0.50100005 134 13 19
0.061713532 -0.11057905 0.50100005 134 13 19
0.062394708 -0.11079977 0.50200003 131 12 17
0.062952705 -0.11079977 0.50200003 131 12 17
0.063637219 -0.11102048 0.50300002 129 13 19
0.064196333 -0.11102048 0.50300002 129 13 19
0.064884178 -0.1112412 0.50400001 129 13 19
0.065574251 -0.11146191 0.505 131 15 21
0.066266552 -0.11168264 0.50600004 131 15 21
0.066828996 -0.11168264 0.50600004 133 17 23
0.067524627 -0.11190335 0.50700003 133 20 27
0.068222478 -0.11212406 0.50800002 136 23 30
0.068787143 -0.11212406 0.50800002 133 24 30
0.069488332 -0.11234478 0.509 135 26 32
0.070054114 -0.11234478 0.509 133 28 35
0.070619889 -0.11234478 0.509 137 32 39
0.071325533 -0.1125655 0.51000005 129 38 45
0.071892425 -0.1125655 0.51000005 132 41 48
0.072459318 -0.1125655 0.51000005 128 59 70
0.073026203 -0.1125655 0.51000005 134 65 76
0.028413234 -0.11046137 0.50300002 117 4 9
0.028972344 -0.11046137 0.50300002 119 3 7
0.030030746 -0.11024177 0.50200003 121 3 5
0.030588744 -0.11024177 0.50200003 121 3 5
0.0310847 -0.11002216 0.50100005 121 3 5
0.031641588 -0.11002216 0.50100005 121 3 5
0.032198478 -0.11002216 0.50100005 122 2 5
0.032689981 -0.10980255 0.5 122 2 3
0.033245757 -0.10980255 0.5 122 2 3
0.033801533 -0.10980255 0.5 122 2 3
0.034357309 -0.10980255 0.5 123 3 4
0.034843259 -0.10958295 0.49900001 123 3 4
0.035397924 -0.10958295 0.49900001 123 3 4
0.03595259 -0.10958295 0.49900001 125 3 4
0.036507253 -0.10958295 0.49900001 126 4 5
0.036987647 -0.10936335 0.49800003 126 4 5
0.037541199 -0.10936335 0.49800003 127 5 6
0.038094752 -0.10936335 0.49800003 128 4 6
0.038570698 -0.10914374 0.49700001 128 4 6
0.03912314 -0.10914374 0.49700001 128 4 8
0.039675578 -0.10914374 0.49700001 130 6 10
0.04022802 -0.10914374 0.49700001 130 6 10
0.040698409 -0.10892414 0.49600002 128 4 8
0.041249741 -0.10892414 0.49600002 130 3 8
0.041801069 -0.10892414 0.49600002 127 3 7
0.042352401 -0.10892414 0.49600002 127 3 7
0.042903729 -0.10892414 0.49600002 127 3 7
0.043455061 -0.10892414 0.49600002 127 3 7
0.044006389 -0.10892414 0.49600002 127 3 7
0.04455772 -0.10892414 0.49600002 128 4 8
0.045109052 -0.10892414 0.49600002 128 3 10
0.045660384 -0.10892414 0.49600002 128 3 10
0.046304882 -0.10914374 0.49700001 130 2 10
0.046857323 -0.10914374 0.49700001 130 2 10
0.047409765 -0.10914374 0.49700001 130 2 10
0.047962204 -0.10914374 0.49700001 132 4 12
0.048514646 -0.10914374 0.49700001 133 5 13
0.049067087 -0.10914374 0.49700001 134 6 14
0.049619529 -0.10914374 0.49700001 134 6 14
0.050171971 -0.10914374 0.49700001 133 5 13
0.050724413 -0.10914374 0.49700001 132 4 12
0.051276855 -0.10914374 0.49700001 132 4 12
0.051829293 -0.10914374 0.49700001 133 5 13
0.052381735 -0.10914374 0.49700001 134 6 14
0.053040687 -0.10936335 0.49800003 134 6 14
0.053594239 -0.10936335 0.49800003 134 6 14
0.054147795 -0.10936335 0.49800003 134 7 12
0.054701347 -0.10936335 0.49800003 134 7 12
0.055254899 -0.10936335 0.49800003 133 6 11
0.055808451 -0.10936335 0.49800003 133 6 11
0.056475181 -0.10958295 0.49900001 128 4 8
0.057029843 -0.10958295 0.49900001 127 3 7
0.057584509 -0.10958295 0.49900001 127 3 7
0.058255684 -0.10980255 0.5 130 6 10
0.05881146 -0.10980255 0.5 131 7 11
0.059367236 -0.10980255 0.5 132 8 12
0.060042862 -0.11002216 0.50100005 131 9 12
0.060599755 -0.11002216 0.50100005 130 8 11
0.061156642 -0.11002216 0.50100005 128 9 16
0.061836708 -0.11024177 0.50200003 131 12 19
0.062394708 -0.11024177 0.50200003 129 13 19
0.063078113 -0.11046137 0.50300002 128 12 18
0.063763738 -0.11068098 0.50400001 125 12 17
0.064323954 -0.11068098 0.50400001 125 12 17
0.065012917 -0.11090057 0.505 127 14 21
0.065704107 -0.11112019 0.50600004 129 16 23
0.066266552 -0.11112019 0.50600004 130 17 24
0.066961065 -0.11133979 0.50700003 131 18 25
0.067657806 -0.1115594 0.50800002 132 20 29
0.068356767 -0.111779 0.509 133 21 30
0.068922549 -0.111779 0.509 133 23 32
0.069488332 -0.111779 0.509 134 24 33
0.070191748 -0.11199861 0.51000005 126 24 32
0.070758641 -0.11199861 0.51000005 133 31 39
0.071325533 -0.11199861 0.51000005 125 39 46
0.071892425 -0.11199861 0.51000005 129 43 50
0.072459318 -0.11199861 0.51000005 122 60 68
0.027909499 -0.11012075 0.50400001 115 4 8
0.029531457 -0.10990226 0.50300002 119 3 7
0.030588744 -0.10968377 0.50200003 119 4 5
0.031146744 -0.10968377 0.50200003 120 2 4
0.031704746 -0.10968377 0.50200003 120 2 4
0.032198478 -0.10946528 0.50100005 120 2 4
0.032755364 -0.10946528 0.50100005 121 3 3
0.033312254 -0.10946528 0.50100005 121 3 3
0.033801533 -0.10924678 0.5 120 2 2
0.034357309 -0.10924678 0.5 120 2 2
0.034913085 -0.10924678 0.5 121 3 3
0.035468861 -0.10924678 0.5 121 3 3
0.03595259 -0.10902829 0.49900001 122 4 4
0.036507253 -0.10902829 0.49900001 122 4 4
0.037061919 -0.10902829 0.49900001 124 4 5
0.037616584 -0.10902829 0.49900001 124 4 5
0.038094752 -0.10880979 0.49800003 123 3 4
0.038648307 -0.10880979 0.49800003 123 3 4
0.039201859 -0.10880979 0.49800003 126 4 7
0.039755411 -0.10880979 0.49800003 126 4 7
0.04022802 -0.1085913 0.49700001 126 4 7
0.040780462 -0.1085913 0.49700001 127 5 8
0.041332904 -0.1085913 0.49700001 126 3 9
0.041885346 -0.1085913 0.49700001 126 3 9
0.042437788 -0.1085913 0.49700001 127 2 9
0.04299023 -0.1085913 0.49700001 127 2 9
0.043542672 -0.1085913 0.49700001 127 2 9
0.04409511 -0.1085913 0.49700001 127 2 9
0.044647552 -0.1085913 0.49700001 127 2 9
0.045199998 -0.1085913 0.49700001 128 3 10
0.04575244 -0.1085913 0.49700001 128 3 10
0.046304882 -0.1085913 0.49700001 128 3 10
0.046857323 -0.1085913 0.49700001 128 3 10
0.047409765 -0.1085913 0.49700001 130 2 10
0.047962204 -0.1085913 0.49700001 134 6 14
0.048514646 -0.1085913 0.49700001 134 6 14
0.049067087 -0.1085913 0.49700001 134 6 14
0.049619529 -0.1085913 0.49700001 135 7 15
0.050171971 -0.1085913 0.49700001 133 5 13
0.050724413 -0.1085913 0.49700001 130 2 10
0.051380027 -0.10880979 0.49800003 130 2 10
0.051933583 -0.10880979 0.49800003 132 4 12
0.052487135 -0.10880979 0.49800003 134 6 14
0.053040687 -0.10880979 0.49800003 134 6 14
0.053594239 -0.10880979 0.49800003 134 6 14
0.054147795 -0.10880979 0.49800003 132 7 14
0.054811187 -0.10902829 0.49900001 132 7 14
0.055365853 -0.10902829 0.49900001 130 6 10
0.055920515 -0.10902829 0.49900001 130 6 10
0.056475181 -0.10902829 0.49900001 130 6 10
0.057144132 -0.10924678 0.5 130 6 10
0.057699908 -0.10924678 0.5 130 6 10
0.058255684 -0.10924678 0.5 131 7 11
0.058929089 -0.10946528 0.50100005 130 8 11
0.059485976 -0.10946528 0.50100005 132 10 13
0.060042862 -0.10946528 0.50100005 132 12 15
0.060720712 -0.10968377 0.50200003 131 11 14
0.061278708 -0.10968377 0.50200003 122 6 12
0.061959889 -0.10990226 0.50300002 127 11 17
0.062518999 -0.10990226 0.50300002 129 18 22
0.063203514 -0.11012075 0.50400001 126 15 19
0.063763738 -0.11012075 0.50400001 121 12 18
0.064451583 -0.11033924 0.505 121 12 18
0.065141663 -0.11055774 0.50600004 127 17 26
0.065704107 -0.11055774 0.50600004 129 19 28
0.06639751 -0.11077624 0.50700003 129 19 28
0.067093141 -0.11099473 0.50800002 130 20 29
0.067790993 -0.11121321 0.509 130 22 30
0.068356767 -0.11121321 0.509 136 28 36
0.069057964 -0.11143173 0.51000005 132 27 34
0.069624856 -0.11143173 0.51000005 120 15 22
0.070191748 -0.11143173 0.51000005 119 22 28
0.070897378 -0.11165021 0.51100004 130 33 39
0.07146538 -0.11165021 0.51100004 120 41 46
0.029029943 -0.10956053 0.50400001 116 3 6
0.030090567 -0.10934315 0.50300002 116 4 4
0.030649677 -0.10934315 0.50300002 116 4 4
0.031704746 -0.10912577 0.50200003 118 3 4
0.032262743 -0.10912577 0.50200003 118 3 4
0.032755364 -0.10890839 0.50100005 118 3 4
0.033312254 -0.10890839 0.50100005 118 3 4
0.03386914 -0.10890839 0.50100005 118 3 2
0.034426026 -0.10890839 0.50100005 118 3 2
0.034913085 -0.108691 0.5 120 2 2
0.035468861 -0.108691 0.5 121 3 3
0.036024638 -0.108691 0.5 122 4 4
0.036580414 -0.108691 0.5 122 4 4
0.03713619 -0.108691 0.5 122 4 4
0.037616584 -0.10847362 0.49900001 122 4 4
0.038171247 -0.10847362 0.49900001 123 3 4
0.038725913 -0.10847362 0.49900001 123 3 4
0.039201859 -0.10825624 0.49800003 123 3 6
0.039755411 -0.10825624 0.49800003 124 4 7
0.040308964 -0.10825624 0.49800003 124 4 7
0.040862519 -0.10825624 0.49800003 124 4 7
0.041416071 -0.10825624 0.49800003 127 4 10
0.041969623 -0.10825624 0.49800003 127 4 10
0.042437788 -0.10803886 0.49700001 126 3 9
0.04299023 -0.10803886 0.49700001 126 3 9
0.043542672 -0.10803886 0.49700001 126 3 9
0.044183835 -0.10825624 0.49800003 126 3 9
0.044737387 -0.10825624 0.49800003 126 3 9
0.045290947 -0.10825624 0.49800003 126 3 9
0.045844499 -0.10825624 0.49800003 127 4 10
0.046398051 -0.10825624 0.49800003 128 3 10
0.046951603 -0.10825624 0.49800003 128 3 10
0.047505159 -0.10825624 0.49800003 128 3 10
0.048058711 -0.10825624 0.49800003 131 6 13
0.048612263 -0.10825624 0.49800003 131 6 13
0.049165815 -0.10825624 0.49800003 130 5 12
0.049719371 -0.10825624 0.49800003 130 5 12
0.050272923 -0.10825624 0.49800003 130 5 12
0.050826475 -0.10825624 0.49800003 128 3 10
0.051380027 -0.10825624 0.49800003 128 3 10
0.051933583 -0.10825624 0.49800003 130 5 12
0.052487135 -0.10825624 0.49800003 131 6 13
0.053040687 -0.10825624 0.49800003 131 6 13
0.053701859 -0.10847362 0.49900001 132 7 14
0.054256521 -0.10847362 0.49900001 132 7 14
0.054811187 -0.10847362 0.49900001 132 7 14
0.055365853 -0.10847362 0.49900001 131 7 11
0.055920515 -0.10847362 0.49900001 130 6 10
0.056588355 -0.108691 0.5 128 4 8
0.057144132 -0.108691 0.5 130 6 10
0.057699908 -0.108691 0.5 130 6 10
0.0583722 -0.10890839 0.50100005 131 7 11
0.058929089 -0.10890839 0.50100005 131 9 12
0.059604708 -0.10912577 0.50200003 133 11 14
0.060162708 -0.10912577 0.50200003 132 11 17
0.060720712 -0.10912577 0.50200003 134 13 19
0.061400779 -0.10934315 0.50300002 131 18 23
0.061959889 -0.10934315 0.50300002 131 18 23
0.06264329 -0.10956053 0.50400001 129 18 24
0.063203514 -0.10956053 0.50400001 128 17 23
0.063890249 -0.10977791 0.505 124 15 21
0.064579211 -0.1099953 0.50600004 126 17 23
0.065141663 -0.1099953 0.50600004 128 18 27
0.065833956 -0.11021268 0.50700003 130 20 29
0.066528469 -0.11043006 0.50800002 128 20 28
0.06722521 -0.11064744 0.509 128 20 28
0.067790993 -0.11064744 0.509 128 26 32
0.068491071 -0.11086483 0.51000005 135 33 39
0.069057964 -0.11086483 0.51000005 147 50 56
0.069761373 -0.11108221 0.51100004 150 53 59
0.070329376 -0.11108221 0.51100004 143 52 59
0.070897378 -0.11108221 0.51100004 138 47 54
0.07146538 -0.11108221 0.51100004 124 50 55
0.029590165 -0.10900031 0.50400001 115 4 6
0.031208789 -0.10878404 0.50300002 116 4 4
0.031767901 -0.10878404 0.50300002 115 3 3
0.032262743 -0.10856777 0.50200003 115 3 3
0.032820743 -0.10856777 0.50200003 115 3 3
0.033378743 -0.10856777 0.50200003 115 3 3
0.03386914 -0.10835151 0.50100005 117 2 1
0.034426026 -0.10835151 0.50100005 118 3 2
0.034982916 -0.10835151 0.50100005 118 3 2
0.035539802 -0.10835151 0.50100005 119 4 3
0.036096688 -0.10835151 0.50100005 119 4 3
0.036580414 -0.10813522 0.5 120 5 4
0.03713619 -0.10813522 0.5 122 4 4
0.037691966 -0.10813522 0.5 122 4 4
0.038247742 -0.10813522 0.5 122 4 4
0.038725913 -0.10791896 0.49900001 122 4 4
0.039280575 -0.10791896 0.49900001 122 4 6
0.039835241 -0.10791896 0.49900001 123 5 7
0.040389907 -0.10791896 0.49900001 124 4 7
0.040862519 -0.10770269 0.49800003 124 4 7
0.041416071 -0.10770269 0.49800003 124 3 9
0.041969623 -0.10770269 0.49800003 124 3 9
0.042523175 -0.10770269 0.49800003 124 3 9
0.043076731 -0.10770269 0.49800003 124 3 9
0.043630283 -0.10770269 0.49800003 126 3 9
0.044183835 -0.10770269 0.49800003 126 3 9
0.044737387 -0.10770269 0.49800003 126 3 9
0.045290947 -0.10770269 0.49800003 126 3 9
0.045844499 -0.10770269 0.49800003 126 3 9
0.046398051 -0.10770269 0.49800003 126 3 9
0.046951603 -0.10770269 0.49800003 126 3 9
0.047505159 -0.10770269 0.49800003 127 2 9
0.048058711 -0.10770269 0.49800003 127 2 9
0.048612263 -0.10770269 0.49800003 127 2 9
0.049165815 -0.10770269 0.49800003 127 2 9
0.049719371 -0.10770269 0.49800003 127 2 9
0.050272923 -0.10770269 0.49800003 127 2 9
0.050826475 -0.10770269 0.49800003 128 3 10
0.051483199 -0.10791896 0.49900001 128 3 10
0.052037865 -0.10791896 0.49900001 128 3 10
0.052592527 -0.10791896 0.49900001 127 2 9
0.053147193 -0.10791896 0.49900001 127 2 9
0.053701859 -0.10791896 0.49900001 130 5 12
0.054256521 -0.10791896 0.49900001 131 6 13
0.054811187 -0.10791896 0.49900001 131 6 13
0.055476803 -0.10813522 0.5 130 5 12
0.056032579 -0.10813522 0.5 130 5 12
0.056588355 -0.10813522 0.5 129 7 10
0.057144132 -0.10813522 0.5 129 7 10
0.057815313 -0.10835151 0.50100005 129 7 10
0.0583722 -0.10835151 0.50100005 130 8 11
0.059046708 -0.10856777 0.50200003 129 8 14
0.059604708 -0.10856777 0.50200003 130 9 15
0.060282551 -0.10878404 0.50300002 130 11 16
0.060841668 -0.10878404 0.50300002 131 12 17
0.061522845 -0.10900031 0.50400001 129 16 21
0.062083069 -0.10900031 0.50400001 130 17 22
0.06276758 -0.10921658 0.505 129 18 24
0.063328914 -0.10921658 0.505 128 17 23
0.064016767 -0.10943285 0.50600004 127 17 26
0.064579211 -0.10943285 0.50600004 129 19 28
0.065270394 -0.10964912 0.50700003 126 18 26
0.065963805 -0.10986539 0.50800002 128 20 28
0.066528469 -0.10986539 0.50800002 127 22 31
0.06722521 -0.11008166 0.509 130 25 34
0.067924179 -0.11029794 0.51000005 127 30 36
0.068625368 -0.11051421 0.51100004 129 32 38
0.069193371 -0.11051421 0.51100004 129 38 45
0.06989789 -0.11073048 0.51200002 132 41 48
0.070467003 -0.11073048 0.51200002 131 45 52
0.071036123 -0.11073048 0.51200002 132 46 53
0.071605235 -0.11073048 0.51200002 119 51 57
0.072174348 -0.11073048 0.51200002 119 51 57
0.029087542 -0.10865524 0.505 114 3 5
0.03071061 -0.10844009 0.50400001 114 3 5
0.031767901 -0.10822493 0.50300002 115 2 5
0.032327011 -0.10822493 0.50300002 115 3 3
0.032820743 -0.10800977 0.50200003 115 3 3
0.033378743 -0.10800977 0.50200003 115 3 3
0.033936743 -0.10800977 0.50200003 115 3 3
0.034494743 -0.10800977 0.50200003 115 3 3
0.034982916 -0.10779461 0.50100005 118 3 4
0.035539802 -0.10779461 0.50100005 118 3 4
0.036096688 -0.10779461 0.50100005 119 4 5
0.036653578 -0.10779461 0.50100005 119 4 5
0.037210464 -0.10779461 0.50100005 119 4 5
0.037691966 -0.10757945 0.5 120 5 6
0.038247742 -0.10757945 0.5 122 4 6
0.038803518 -0.10757945 0.5 122 4 6
0.039359294 -0.10757945 0.5 124 6 8
0.039835241 -0.10736429 0.49900001 126 8 10
0.040389907 -0.10736429 0.49900001 124 6 8
0.040944569 -0.10736429 0.49900001 123 5 7
0.041499235 -0.10736429 0.49900001 123 4 9
0.042053901 -0.10736429 0.49900001 123 4 9
0.042608563 -0.10736429 0.49900001 124 3 9
0.043163229 -0.10736429 0.49900001 124 3 9
0.043717891 -0.10736429 0.49900001 123 2 8
0.044272557 -0.10736429 0.49900001 123 2 8
0.044827223 -0.10736429 0.49900001 125 2 8
0.045381889 -0.10736429 0.49900001 125 2 8
0.045936555 -0.10736429 0.49900001 125 2 8
0.046491221 -0.10736429 0.49900001 126 3 9
0.047045883 -0.10736429 0.49900001 126 3 9
0.047600549 -0.10736429 0.49900001 126 3 9
0.048155211 -0.10736429 0.49900001 126 3 9
0.048709877 -0.10736429 0.49900001 127 2 9
0.049264543 -0.10736429 0.49900001 127 2 9
0.049819205 -0.10736429 0.49900001 127 2 9
0.050373871 -0.10736429 0.49900001 128 3 10
0.050928537 -0.10736429 0.49900001 128 3 10
0.051483199 -0.10736429 0.49900001 128 3 10
0.052037865 -0.10736429 0.49900001 127 2 9
0.052592527 -0.10736429 0.49900001 127 2 9
0.053253699 -0.10757945 0.5 127 2 9
0.053809475 -0.10757945 0.5 128 3 10
0.054365251 -0.10757945 0.5 130 5 12
0.054921027 -0.10757945 0.5 130 5 12
0.055476803 -0.10757945 0.5 127 4 10
0.056032579 -0.10757945 0.5 127 4 10
0.056701537 -0.10779461 0.50100005 129 6 12
0.057258423 -0.10779461 0.50100005 130 7 13
0.057815313 -0.10779461 0.50100005 128 7 13
0.058488712 -0.10800977 0.50200003 128 7 13
0.059046708 -0.10800977 0.50200003 128 7 13
0.059723441 -0.10822493 0.50300002 129 8 14
0.060282551 -0.10822493 0.50300002 128 9 16
0.060962621 -0.10844009 0.50400001 129 10 17
0.061522845 -0.10844009 0.50400001 127 14 19
0.062206246 -0.10865524 0.505 129 16 21
0.06276758 -0.10865524 0.505 124 15 21
0.063454323 -0.10887041 0.50600004 126 17 23
0.064016767 -0.10887041 0.50600004 126 18 26
0.06470684 -0.10908557 0.50700003 129 21 29
0.065399133 -0.10930073 0.50800002 125 20 29
0.066093653 -0.10951588 0.509 126 21 30
0.066659428 -0.10951588 0.509 125 24 34
0.067357287 -0.10973105 0.51000005 129 28 38
0.068057366 -0.10994621 0.51100004 127 33 41
0.068625368 -0.10994621 0.51100004 129 35 43
0.069328777 -0.11016136 0.51200002 126 40 47
0.06989789 -0.11016136 0.51200002 128 42 49
0.070467003 -0.11016136 0.51200002 126 47 54
0.07117486 -0.11037651 0.51300001 130 51 58
0.03021021 -0.10809391 0.505 114 3 5
0.031270832 -0.10787986 0.50400001 114 3 5
0.031831056 -0.10787986 0.50400001 114 3 5
0.032886121 -0.10766581 0.50300002 114 3 5
0.033445232 -0.10766581 0.50300002 115 3 3
0.033936743 -0.10745177 0.50200003 115 3 3
0.034494743 -0.10745177 0.50200003 115 3 3
0.035052739 -0.10745177 0.50200003 116 4 4
0.035610739 -0.10745177 0.50200003 116 4 4
0.036096688 -0.10723773 0.50100005 116 4 4
0.036653578 -0.10723773 0.50100005 117 5 5
0.037210464 -0.10723773 0.50100005 119 4 5
0.037767354 -0.10723773 0.50100005 119 4 5
0.038324241 -0.10723773 0.50100005 119 4 5
0.038803518 -0.10702367 0.5 119 4 5
0.039359294 -0.10702367 0.5 122 4 6
0.03991507 -0.10702367 0.5 123 5 7
0.040470846 -0.10702367 0.5 124 6 8
0.040944569 -0.10680962 0.49900001 124 6 8
0.041499235 -0.10680962 0.49900001 124 5 10
0.042053901 -0.10680962 0.49900001 123 4 9
0.042608563 -0.10680962 0.49900001 124 3 9
0.043163229 -0.10680962 0.49900001 124 3 9
0.043717891 -0.10680962 0.49900001 123 2 8
0.044272557 -0.10680962 0.49900001 123 2 8
0.044917054 -0.10702367 0.5 125 2 8
0.045472834 -0.10702367 0.5 125 2 8
0.04602861 -0.10702367 0.5 125 2 8
0.046584386 -0.10702367 0.5 126 3 9
0.047140162 -0.10702367 0.5 126 3 9
0.047695938 -0.10702367 0.5 126 3 9
0.048251715 -0.10702367 0.5 126 3 9
0.048807491 -0.10702367 0.5 126 3 9
0.049363267 -0.10702367 0.5 126 3 9
0.049919043 -0.10702367 0.5 125 2 8
0.050474819 -0.10702367 0.5 125 2 8
0.051030595 -0.10702367 0.5 125 2 8
0.051586371 -0.10702367 0.5 126 3 9
0.052142147 -0.10702367 0.5 126 3 9
0.052697923 -0.10702367 0.5 125 2 8
0.053253699 -0.10702367 0.5 125 2 8
0.053809475 -0.10702367 0.5 126 3 9
0.054365251 -0.10702367 0.5 127 4 10
0.055030875 -0.10723773 0.50100005 129 6 12
0.055587761 -0.10723773 0.50100005 129 6 12
0.056144651 -0.10723773 0.50100005 127 4 10
0.056701537 -0.10723773 0.50100005 125 4 10
0.057258423 -0.10723773 0.50100005 127 6 12
0.057930712 -0.10745177 0.50200003 127 6 12
0.058488712 -0.10745177 0.50200003 127 6 12
0.05916433 -0.10766581 0.50300002 126 7 14
0.059723441 -0.10766581 0.50300002 127 8 15
0.060402397 -0.10787986 0.50400001 127 11 17
0.061083578 -0.10809391 0.505 128 12 18
0.061644912 -0.10809391 0.505 125 14 18
0.062329434 -0.10830797 0.50600004 125 14 18
0.062891878 -0.10830797 0.50600004 123 14 20
0.063579723 -0.10852201 0.50700003 123 14 20
0.064143285 -0.10852201 0.50700003 123 15 23
0.064834468 -0.10873605 0.50800002 126 18 26
0.065527871 -0.1089501 0.509 125 20 29
0.066093653 -0.1089501 0.509 128 23 32
0.066790402 -0.10916416 0.51000005 125 27 36
0.067489363 -0.1093782 0.51100004 127 29 38
0.068057366 -0.1093782 0.51100004 123 32 39
0.068759665 -0.10959224 0.51200002 125 34 41
0.069328777 -0.10959224 0.51200002 126 41 50
0.070034407 -0.10980629 0.51300001 128 43 52
0.070604637 -0.10980629 0.51300001 123 48 56
0.018823473 -0.10987487 0.51600003 107 59 67
0.019397033 -0.10987487 0.51600003 74 26 34
0.031332877 -0.10753258 0.505 112 3 5
0.03239128 -0.10731964 0.50400001 114 3 5
0.0329515 -0.10731964 0.50400001 114 3 5
0.033445232 -0.10710671 0.50300002 114 3 5
0.034004346 -0.10710671 0.50300002 114 4 3
0.034563456 -0.10710671 0.50300002 114 4 3
0.035052739 -0.10689377 0.50200003 116 4 4
0.035610739 -0.10689377 0.50200003 116 4 4
0.036168739 -0.10689377 0.50200003 116 4 4
0.036726739 -0.10689377 0.50200003 116 4 4
0.037210464 -0.10668084 0.50100005 116 4 4
0.037767354 -0.10668084 0.50100005 116 4 4
0.038324241 -0.10668084 0.50100005 119 4 5
0.038881127 -0.10668084 0.50100005 119 4 5
0.039438017 -0.10668084 0.50100005 119 4 5
0.039994903 -0.10668084 0.50100005 119 4 5
0.040470846 -0.1064679 0.5 122 4 6
0.041026622 -0.1064679 0.5 123 5 7
0.041582398 -0.1064679 0.5 123 5 7
0.042138174 -0.1064679 0.5 123 5 7
0.04269395 -0.1064679 0.5 122 4 6
0.043249726 -0.1064679 0.5 122 4 6
0.043805502 -0.1064679 0.5 123 3 6
0.044361278 -0.1064679 0.5 123 3 6
0.044917054 -0.1064679 0.5 123 3 6
0.045472834 -0.1064679 0.5 124 4 7
0.04602861 -0.1064679 0.5 126 4 7
0.046584386 -0.1064679 0.5 126 4 7
0.047234446 -0.10668084 0.50100005 126 4 7
0.047791336 -0.10668084 0.50100005 126 4 7
0.048348222 -0.10668084 0.50100005 126 4 7
0.048807491 -0.1064679 0.5 126 4 7
0.049363267 -0.1064679 0.5 125 3 6
0.049919043 -0.1064679 0.5 125 2 8
0.050474819 -0.1064679 0.5 125 2 8
0.05113266 -0.10668084 0.50100005 125 2 8
0.05168955 -0.10668084 0.50100005 125 2 8
0.052246436 -0.10668084 0.50100005 125 2 8
0.052803323 -0.10668084 0.50100005 126 3 9
0.053360213 -0.10668084 0.50100005 125 4 10
0.053917099 -0.10668084 0.50100005 125 4 10
0.054473985 -0.10668084 0.50100005 127 6 12
0.055030875 -0.10668084 0.50100005 128 7 13
0.055587761 -0.10668084 0.50100005 128 7 13
0.056144651 -0.10668084 0.50100005 128 7 13
0.056701537 -0.10668084 0.50100005 127 6 12
0.057372712 -0.10689377 0.50200003 127 6 12
0.057930712 -0.10689377 0.50200003 127 8 13
0.05860522 -0.10710671 0.50300002 128 9 14
0.059281953 -0.10731964 0.50400001 125 9 15
0.059842173 -0.10731964 0.50400001 125 9 15
0.06052224 -0.10753258 0.505 124 11 16
0.061083578 -0.10753258 0.505 126 13 18
0.061766986 -0.10774552 0.50600004 125 14 20
0.062452611 -0.10795845 0.50700003 126 15 21
0.063016169 -0.10795845 0.50700003 125 18 23
0.063705131 -0.10817139 0.50800002 125 18 23
0.064269796 -0.10817139 0.50800002 124 19 26
0.064962089 -0.10838432 0.509 125 20 27
0.065527871 -0.10838432 0.509 124 22 30
0.06622351 -0.10859726 0.51000005 126 24 32
0.066921361 -0.10881019 0.51100004 124 28 34
0.067621432 -0.10902313 0.51200002 125 29 35
0.068190545 -0.10902313 0.51200002 121 32 38
0.068893954 -0.10923606 0.51300001 123 34 40
0.069464184 -0.10923606 0.51300001 122 43 50
0.070034407 -0.10923606 0.51300001 126 47 54
0.018823473 -0.10930131 0.51600003 123 90 93
0.019397033 -0.10930131 0.51600003 89 56 59
0.019970596 -0.10930131 0.51600003 84 16 24
0.020504344 -0.10908949 0.51500005 79 11 19
0.030270034 -0.10718308 0.50600004 106 2 4
0.031894214 -0.10697124 0.505 109 2 3
0.032455549 -0.10697124 0.505 109 2 3
0.0329515 -0.10675942 0.50400001 111 4 5
0.033511724 -0.10675942 0.50400001 112 3 5
0.034004346 -0.10654759 0.50300002 112 3 5
0.034563456 -0.10654759 0.50300002 112 4 3
0.035122566 -0.10654759 0.50300002 114 4 3
0.035681676 -0.10654759 0.50300002 114 4 3
0.036168739 -0.10633577 0.50200003 114 4 3
0.036726739 -0.10633577 0.50200003 115 5 4
0.037284736 -0.10633577 0.50200003 116 4 4
0.037842736 -0.10633577 0.50200003 116 4 4
0.038400736 -0.10633577 0.50200003 116 4 4
0.038881127 -0.10612395 0.50100005 116 4 4
0.039438017 -0.10612395 0.50100005 119 4 5
0.039994903 -0.10612395 0.50100005 119 4 5
0.040551793 -0.10612395 0.50100005 119 4 5
0.041108679 -0.10612395 0.50100005 120 5 6
0.041665565 -0.10612395 0.50100005 122 4 6
0.042222455 -0.10612395 0.50100005 122 4 6
0.042779341 -0.10612395 0.50100005 122 4 6
0.043336231 -0.10612395 0.50100005 122 4 6
0.043893117 -0.10612395 0.50100005 123 3 6
0.044450004 -0.10612395 0.50100005 123 3 6
0.045006894 -0.10612395 0.50100005 123 3 6
0.045563783 -0.10612395 0.50100005 124 4 7
0.046120673 -0.10612395 0.50100005 124 4 7
0.04667756 -0.10612395 0.50100005 123 3 6
0.047234446 -0.10612395 0.50100005 125 3 6
0.047791336 -0.10612395 0.50100005 125 3 6
0.048348222 -0.10612395 0.50100005 125 3 6
0.048905112 -0.10612395 0.50100005 125 3 6
0.049461998 -0.10612395 0.50100005 125 3 6
0.050018884 -0.10612395 0.50100005 124 2 5
0.050575774 -0.10612395 0.50100005 124 2 5
0.05113266 -0.10612395 0.50100005 122 1 7
0.05168955 -0.10612395 0.50100005 123 2 8
0.052246436 -0.10612395 0.50100005 123 2 8
0.052803323 -0.10612395 0.50100005 125 4 10
0.053466719 -0.10633577 0.50200003 127 6 12
0.054024715 -0.10633577 0.50200003 127 6 12
0.054582715 -0.10633577 0.50200003 127 6 12
0.055140715 -0.10633577 0.50200003 128 7 13
0.055698715 -0.10633577 0.50200003 130 9 15
0.056256715 -0.10633577 0.50200003 129 8 14
0.056814712 -0.10633577 0.50200003 127 8 13
0.057487 -0.10654759 0.50300002 126 7 12
0.05804611 -0.10654759 0.50300002 125 9 13
0.058721729 -0.10675942 0.50400001 126 10 14
0.059399575 -0.10697124 0.505 125 12 17
0.059960909 -0.10697124 0.505 125 12 17
0.060642093 -0.10718308 0.50600004 124 13 17
0.061204541 -0.10718308 0.50600004 124 13 17
0.061889056 -0.1073949 0.50700003 123 16 21
0.062575795 -0.10760672 0.50800002 125 18 23
0.063140459 -0.10760672 0.50800002 123 19 23
0.063705131 -0.10760672 0.50800002 123 19 23
0.064396307 -0.10781854 0.509 122 20 26
0.064962089 -0.10781854 0.509 124 22 28
0.065656617 -0.10803037 0.51000005 123 26 32
0.066353358 -0.10824219 0.51100004 125 28 34
0.066921361 -0.10824219 0.51100004 122 28 36
0.067621432 -0.10845402 0.51200002 125 31 39
0.068323731 -0.10866584 0.51300001 121 35 40
0.069028251 -0.10887766 0.514 124 38 43
0.069599591 -0.10887766 0.514 120 46 51
0.070307456 -0.10908949 0.51500005 124 50 55
0.071591094 -0.10930131 0.51600003 122 56 61
0.018823473 -0.10872775 0.51600003 145 123 125
0.019397033 -0.10872775 0.51600003 113 91 93
0.019970596 -0.10872775 0.51600003 105 51 54
0.020544158 -0.10872775 0.51600003 72 18 21
0.021076793 -0.10851704 0.51500005 98 21 27
0.027054816 -0.10725275 0.509 100 3 7
0.028131004 -0.10704204 0.50800002 103 3 8
0.029766299 -0.10683133 0.50700003 104 3 6
0.031394925 -0.10662062 0.50600004 104 3 2
0.032455549 -0.10640991 0.505 107 3 3
0.033016879 -0.10640991 0.505 107 3 3
0.033578213 -0.10640991 0.505 109 2 3
0.034071945 -0.1061992 0.50400001 109 2 3
0.034632169 -0.1061992 0.50400001 110 2 1
0.035122566 -0.10598849 0.50300002 112 4 3
0.035681676 -0.10598849 0.50300002 112 4 3
0.036240786 -0.10598849 0.50300002 114 4 3
0.036799897 -0.10598849 0.50300002 114 4 3
0.037359007 -0.10598849 0.50300002 114 4 3
0.037842736 -0.10577778 0.50200003 115 5 4
0.038400736 -0.10577778 0.50200003 116 4 4
0.038958736 -0.10577778 0.50200003 116 4 4
0.039516732 -0.10577778 0.50200003 116 4 4
0.040074732 -0.10577778 0.50200003 117 5 5
0.040632732 -0.10577778 0.50200003 119 4 5
0.041190732 -0.10577778 0.50200003 119 4 5
0.041748732 -0.10577778 0.50200003 119 4 5
0.042306729 -0.10577778 0.50200003 120 5 6
0.042864729 -0.10577778 0.50200003 122 4 6
0.043422729 -0.10577778 0.50200003 121 3 5
0.043980729 -0.10577778 0.50200003 122 4 6
0.044538725 -0.10577778 0.50200003 122 4 6
0.045096725 -0.10577778 0.50200003 123 3 6
0.045654729 -0.10577778 0.50200003 123 3 6
0.046212729 -0.10577778 0.50200003 123 3 6
0.046770725 -0.10577778 0.50200003 123 3 6
0.047328725 -0.10577778 0.50200003 123 3 6
0.047886726 -0.10577778 0.50200003 123 3 6
0.048444726 -0.10577778 0.50200003 123 3 6
0.049002726 -0.10577778 0.50200003 123 3 6
0.049560722 -0.10577778 0.50200003 122 2 5
0.050118722 -0.10577778 0.50200003 122 2 5
0.050676722 -0.10577778 0.50200003 122 2 5
0.051234722 -0.10577778 0.50200003 122 1 7
0.051792718 -0.10577778 0.50200003 123 2 8
0.052350719 -0.10577778 0.50200003 123 2 8
0.052908719 -0.10577778 0.50200003 123 2 8
0.053466719 -0.10577778 0.50200003 123 2 8
0.054024715 -0.10577778 0.50200003 123 2 8
0.054691445 -0.10598849 0.50300002 122 3 8
0.055250555 -0.10598849 0.50300002 124 5 10
0.055809665 -0.10598849 0.50300002 126 7 12
0.056368776 -0.10598849 0.50300002 126 7 12
0.05692789 -0.10598849 0.50300002 124 8 12
0.057601284 -0.1061992 0.50400001 124 8 12
0.058161508 -0.1061992 0.50400001 123 10 13
0.058838241 -0.10640991 0.505 124 11 14
0.059517201 -0.10662062 0.50600004 124 13 17
0.060079649 -0.10662062 0.50600004 124 13 17
0.060761936 -0.10683133 0.50700003 122 13 17
0.061325498 -0.10683133 0.50700003 123 14 18
0.062011123 -0.10704204 0.50800002 123 16 21
0.062575795 -0.10704204 0.50800002 125 18 23
0.06326475 -0.10725275 0.509 123 19 23
0.063830532 -0.10725275 0.509 123 19 23
0.064522833 -0.10746348 0.51000005 121 21 28
0.065089725 -0.10746348 0.51000005 127 27 34
0.065785348 -0.10767419 0.51100004 127 30 36
0.066353358 -0.10767419 0.51100004 126 29 35
0.06705232 -0.1078849 0.51200002 122 31 38
0.067753501 -0.10809561 0.51300001 124 33 40
0.068456911 -0.10830632 0.514 121 39 43
0.069162555 -0.10851704 0.51500005 124 42 46
0.069735005 -0.10851704 0.51500005 117 47 51
0.070443973 -0.10872775 0.51600003 117 47 51
0.071729831 -0.10893846 0.51700002 116 57 62
0.018823473 -0.10815419 0.51600003 148 136 134
0.019397033 -0.10815419 0.51600003 117 105 103
0.019970596 -0.10815419 0.51600003 109 73 75
0.020544158 -0.10815419 0.51600003 69 33 35
0.021117719 -0.10815419 0.51600003 80 12 18
0.021649243 -0.10794459 0.51500005 93 25 31
0.025457116 -0.10710619 0.51100004 102 14 17
0.02654108 -0.10689659 0.51000005 97 4 9
0.029260341 -0.10647738 0.50800002 102 3 5
0.030893413 -0.10626778 0.50700003 102 3 3
0.031957373 -0.10605818 0.50600004 104 3 4
0.032519817 -0.10605818 0.50600004 104 3 2
0.033082265 -0.10605818 0.50600004 105 4 3
0.033578213 -0.10584857 0.505 109 2 3
0.034139547 -0.10584857 0.505 109 2 3
0.034632169 -0.10563897 0.50400001 109 2 3
0.035192389 -0.10563897 0.50400001 111 4 5
0.035752613 -0.10563897 0.50400001 111 4 5
0.036240786 -0.10542937 0.50300002 112 3 5
0.036799897 -0.10542937 0.50300002 112 3 5
0.037359007 -0.10542937 0.50300002 112 4 3
0.037918121 -0.10542937 0.50300002 112 4 3
0.038477231 -0.10542937 0.50300002 114 4 3
0.039036341 -0.10542937 0.50300002 115 5 4
0.039595451 -0.10542937 0.50300002 116 4 4
0.040154561 -0.10542937 0.50300002 116 4 4
0.040713672 -0.10542937 0.50300002 117 5 5
0.041190732 -0.10521977 0.50200003 117 5 5
0.041748732 -0.10521977 0.50200003 119 4 5
0.042306729 -0.10521977 0.50200003 119 4 5
0.042864729 -0.10521977 0.50200003 119 4 5
0.043422729 -0.10521977 0.50200003 119 4 5
0.044068336 -0.10542937 0.50300002 122 4 6
0.044627447 -0.10542937 0.50300002 122 4 6
0.045186557 -0.10542937 0.50300002 123 5 7
0.045745675 -0.10542937 0.50300002 122 4 6
0.046304785 -0.10542937 0.50300002 122 2 5
0.046863895 -0.10542937 0.50300002 122 2 5
0.047423005 -0.10542937 0.50300002 122 2 5
0.047982115 -0.10542937 0.50300002 122 2 5
0.048541225 -0.10542937 0.50300002 122 2 5
0.049100339 -0.10542937 0.50300002 122 2 5
0.049560722 -0.10521977 0.50200003 122 2 5
0.050118722 -0.10521977 0.50200003 122 2 5
0.05077767 -0.10542937 0.50300002 122 2 5
0.05133678 -0.10542937 0.50300002 122 2 5
0.05189589 -0.10542937 0.50300002 122 1 7
0.052455001 -0.10542937 0.50300002 121 2 7
0.053014114 -0.10542937 0.50300002 121 2 7
0.053573225 -0.10542937 0.50300002 121 2 7
0.054132335 -0.10542937 0.50300002 121 2 7
0.054800175 -0.10563897 0.50400001 121 2 7
0.055360395 -0.10563897 0.50400001 122 3 8
0.05592062 -0.10563897 0.50400001 122 3 8
0.05648084 -0.10563897 0.50400001 123 4 9
0.057154238 -0.10584857 0.505 120 7 10
0.057715572 -0.10584857 0.505 120 7 10
0.058276907 -0.10584857 0.505 122 9 12
0.058954757 -0.10605818 0.50600004 123 10 13
0.059517201 -0.10605818 0.50600004 121 12 16
0.060198382 -0.10626778 0.50700003 121 12 16
0.060761936 -0.10626778 0.50700003 122 15 20
0.061446454 -0.10647738 0.50800002 123 16 21
0.062133189 -0.10668698 0.509 121 16 23
0.062698968 -0.10668698 0.509 121 16 23
0.063389048 -0.10689659 0.51000005 121 19 25
0.06395594 -0.10689659 0.51000005 122 20 26
0.064522833 -0.10689659 0.51000005 123 23 30
0.065217346 -0.10710619 0.51100004 125 25 32
0.065785348 -0.10710619 0.51100004 126 29 35
0.0664832 -0.10731579 0.51200002 127 30 36
0.067183279 -0.10752539 0.51300001 122 33 39
0.067885578 -0.10773499 0.514 124 35 41
0.068590105 -0.10794459 0.51500005 122 45 47
0.069162555 -0.10794459 0.51500005 141 64 66
0.069870412 -0.10815419 0.51600003 134 73 76
0.07058049 -0.10836379 0.51700002 137 76 79
0.071292788 -0.10857339 0.51800001 122 73 74
0.071868576 -0.10857339 0.51800001 115 66 67
0.019970596 -0.10758063 0.51600003 116 97 95
0.020544158 -0.10758063 0.51600003 93 74 72
0.021117719 -0.10758063 0.51600003 83 29 32
0.021649243 -0.10737214 0.51500005 75 21 24
0.022221692 -0.10737214 0.51500005 91 17 20
0.022794141 -0.10737214 0.51500005 90 16 19
0.027674865 -0.10632969 0.51000005 97 4 9
0.028752159 -0.1061212 0.509 99 3 7
0.030389678 -0.10591271 0.50800002 101 2 4
0.032020528 -0.10570423 0.50700003 102 3 3
0.033082265 -0.10549574 0.50600004 105 4 3
0.03364471 -0.10549574 0.50600004 107 3 3
0.034207154 -0.10549574 0.50600004 107 3 3
0.034700882 -0.10528724 0.505 109 2 3
0.035262216 -0.10528724 0.505 109 2 3
0.035752613 -0.10507875 0.50400001 109 2 3
0.036312833 -0.10507875 0.50400001 109 2 3
0.036873057 -0.10507875 0.50400001 111 4 5
0.037433282 -0.10507875 0.50400001 112 3 5
0.037993502 -0.10507875 0.50400001 112 3 5
0.038477231 -0.10487027 0.50300002 112 3 5
0.039036341 -0.10487027 0.50300002 113 4 6
0.039595451 -0.10487027 0.50300002 115 4 6
0.040154561 -0.10487027 0.50300002 115 4 6
0.040713672 -0.10487027 0.50300002 116 3 6
0.041272782 -0.10487027 0.50300002 117 4 7
0.041831896 -0.10487027 0.50300002 117 4 7
0.042391006 -0.10487027 0.50300002 117 4 7
