ply
format ascii 1.0
comment PCL generated
element vertex 771
property float x
property float y
property float z
property uchar red
property uchar green
property uchar blue
element camera 1
property float view_px
property float view_py
property float view_pz
property float x_axisx
property float x_axisy
property float x_axisz
property float y_axisx
property float y_axisy
property float y_axisz
property float z_axisx
property float z_axisy
property float z_axisz
property float focal
property float scalex
property float scaley
property float centerx
property float centery
property int viewportx
property int viewporty
property float k1
property float k2
end_header
-0.064475365 0.10037848 0.49500003 37 36 36
-0.063796006 0.1001757 0.49400002 36 36 36
-0.063246898 0.1001757 0.49400002 37 37 37
-0.06257087 0.099972919 0.49300003 36 36 36
-0.065025583 0.1009287 0.49500003 32 31 31
-0.064475365 0.1009287 0.49500003 32 31 31
-0.063796006 0.1007248 0.49400002 32 32 32
-0.063246898 0.1007248 0.49400002 32 32 32
-0.06257087 0.10052091 0.49300003 32 32 32
-0.06202288 0.10052091 0.49300003 27 27 27
-0.061350189 0.10031701 0.49200001 26 26 26
-0.063118868 0.10106891 0.49300003 29 29 29
-0.06257087 0.10106891 0.49300003 29 29 29
-0.061897069 0.1008639 0.49200001 27 27 27
-0.061350189 0.1008639 0.49200001 29 29 29
-0.063118868 0.1016169 0.49300003 27 27 27
-0.06257087 0.1016169 0.49300003 29 29 29
-0.061897069 0.10141078 0.49200001 29 29 29
-0.061350189 0.10141078 0.49200001 30 30 30
-0.063118868 0.10216489 0.49300003 26 26 26
-0.062443953 0.10195766 0.49200001 25 25 25
-0.061897069 0.10195766 0.49200001 26 26 26
-0.061225496 0.10175043 0.49100003 29 29 29
-0.069848105 0.1037546 0.49800003 32 31 31
-0.069294557 0.1037546 0.49800003 32 31 31
-0.061897069 0.10250454 0.49200001 27 27 27
-0.061225496 0.1022962 0.49100003 29 29 29
-0.070543028 0.10451761 0.49900001 33 32 32
-0.069848105 0.10430816 0.49800003 31 30 30
-0.069294557 0.10430816 0.49800003 28 27 27
-0.071097694 0.10507227 0.49900001 30 29 29
-0.070401661 0.10486171 0.49800003 30 29 29
-0.060556136 0.10317718 0.49000001 32 32 32
-0.059889004 0.10296662 0.48900002 31 31 31
-0.072351724 0.10583861 0.5 27 26 26
-0.07165236 0.10562694 0.49900001 25 24 24
-0.0729075 0.10639439 0.5 30 29 29
-0.072207019 0.1061816 0.49900001 27 26 26
-0.07165236 0.1061816 0.49900001 25 24 24
-0.059224099 0.10384093 0.48800004 27 27 27
-0.058681659 0.10384093 0.48800004 27 27 27
-0.0729075 0.10695016 0.5 32 31 31
-0.072207019 0.10673627 0.49900001 30 29 29
-0.07165236 0.10673627 0.49900001 28 27 27
-0.059224099 0.10438336 0.48800004 23 23 23
-0.073463276 0.10750594 0.5 34 34 34
-0.0729075 0.10750594 0.5 32 32 32
-0.072207019 0.10729093 0.49900001 28 27 27
-0.07165236 0.10729093 0.49900001 28 27 27
-0.074167095 0.10827785 0.50100005 40 40 40
-0.073463276 0.10806172 0.5 37 37 37
-0.0729075 0.10806172 0.5 33 33 33
-0.072207019 0.1078456 0.49900001 33 32 32
-0.07165236 0.1078456 0.49900001 27 26 26
-0.070955217 0.10762948 0.49800003 27 26 26
-0.070401661 0.10762948 0.49800003 27 26 26
-0.069707848 0.10741334 0.49700001 28 27 27
-0.06915541 0.10741334 0.49700001 27 26 26
-0.074723981 0.10883474 0.50100005 44 44 44
-0.074019052 0.10861749 0.5 43 43 43
-0.073463276 0.10861749 0.5 41 41 41
-0.072761685 0.10840026 0.49900001 41 41 41
-0.072207019 0.10840026 0.49900001 46 46 46
-0.071508765 0.10818303 0.49800003 38 38 38
-0.070955217 0.10818303 0.49800003 25 24 24
-0.070260294 0.10796579 0.49700001 24 23 23
-0.069707848 0.10796579 0.49700001 31 30 30
-0.06915541 0.10796579 0.49700001 33 32 32
-0.075431131 0.10960997 0.50200003 43 43 43
-0.074723981 0.10939162 0.50100005 44 44 44
-0.074019052 0.10917327 0.5 44 44 44
-0.073463276 0.10917327 0.5 44 44 44
-0.072761685 0.10895492 0.49900001 45 45 45
-0.072062321 0.10873658 0.49800003 46 46 46
-0.071508765 0.10873658 0.49800003 46 46 46
-0.070955217 0.10873658 0.49800003 41 41 41
-0.070260294 0.10851823 0.49700001 41 41 41
-0.069707848 0.10851823 0.49700001 43 43 43
-0.069016263 0.10829989 0.49600002 48 48 48
-0.075431131 0.11016797 0.50200003 41 41 41
-0.074723981 0.10994852 0.50100005 44 44 44
-0.074019052 0.10972904 0.5 44 44 44
-0.073316351 0.10950959 0.49900001 45 45 45
-0.072615877 0.10929013 0.49800003 45 45 45
-0.072062321 0.10929013 0.49800003 45 45 45
-0.07136517 0.10907067 0.49700001 44 44 44
-0.070812732 0.10907067 0.49700001 43 43 43
-0.070118926 0.10885122 0.49600002 44 44 44
-0.069567591 0.10885122 0.49600002 45 45 45
-0.076140501 0.11094654 0.50300002 43 43 43
-0.075431131 0.11072597 0.50200003 44 44 44
-0.074723981 0.1105054 0.50100005 45 45 45
-0.074019052 0.11028482 0.5 45 45 45
-0.073316351 0.11006425 0.49900001 46 46 46
-0.072615877 0.10984369 0.49800003 47 47 47
-0.071917616 0.10962311 0.49700001 47 47 47
-0.07136517 0.10962311 0.49700001 45 45 45
-0.070812732 0.10962311 0.49700001 44 44 44
-0.070118926 0.10940254 0.49600002 45 45 45
-0.076140501 0.11150564 0.50300002 44 44 44
-0.074723981 0.11106229 0.50100005 46 46 46
-0.073169425 0.11039724 0.49800003 47 47 47
-0.072615877 0.11039724 0.49800003 47 47 47
-0.071917616 0.11017556 0.49700001 47 47 47
-0.071221583 0.10995387 0.49600002 46 46 46
-0.070670255 0.10995387 0.49600002 46 46 46
-0.077004574 0.11251034 0.505 48 48 48
-0.076291874 0.11228754 0.50400001 46 46 46
-0.073169425 0.11095079 0.49800003 48 48 48
-0.072470054 0.110728 0.49700001 48 48 48
-0.071772911 0.11050521 0.49600002 48 48 48
-0.071221583 0.11050521 0.49600002 48 48 48
-0.048015609 0.10671773 0.47900003 34 34 34
-0.047483176 0.10671773 0.47900003 34 34 34
-0.046852723 0.10649493 0.47800002 33 33 33
-0.0463214 0.10649493 0.47800002 33 33 33
-0.04579008 0.10649493 0.47800002 34 34 34
-0.077157065 0.11329558 0.50600004 51 51 51
-0.076291874 0.11284777 0.50400001 47 47 47
-0.073169425 0.11150435 0.49800003 50 50 50
-0.072470054 0.11128043 0.49700001 48 48 48
-0.071772911 0.11105654 0.49600002 49 48 48
-0.0463214 0.10702626 0.47800002 33 33 33
-0.04579008 0.10702626 0.47800002 34 34 34
-0.077873111 0.11408304 0.50700003 48 48 48
-0.077309549 0.11408304 0.50700003 50 50 50
-0.07644324 0.113633 0.505 51 51 51
-0.075581394 0.11318298 0.50300002 52 51 51
-0.074723981 0.11273295 0.50100005 49 48 48
-0.073169425 0.1120579 0.49800003 47 46 46
-0.072470054 0.11183288 0.49700001 47 46 46
-0.071772911 0.11160786 0.49600002 48 47 47
-0.078026704 0.11487272 0.50800002 46 46 46
-0.077309549 0.1146466 0.50700003 48 48 48
-0.076594621 0.11442047 0.50600004 50 50 50
-0.07573165 0.11396821 0.50400001 52 51 51
-0.074873134 0.11351597 0.50200003 52 51 51
-0.074019052 0.1130637 0.5 48 47 47
-0.041894794 0.10763665 0.47600001 38 37 37
-0.041278791 0.10741052 0.47500002 37 36 36
-0.040750805 0.10741052 0.47500002 33 33 33
-0.040222816 0.10741052 0.47500002 31 31 31
-0.078180298 0.11566463 0.509 45 45 45
-0.077462032 0.11543739 0.50800002 46 46 46
-0.076594621 0.11498292 0.50600004 47 47 47
-0.043043233 0.10839298 0.47700003 37 36 36
-0.04251302 0.10839298 0.47700003 37 36 36
-0.041894794 0.10816574 0.47600001 36 36 36
-0.041365694 0.10816574 0.47600001 34 34 34
-0.040750805 0.10793851 0.47500002 32 32 32
-0.040222816 0.10793851 0.47500002 20 20 20
-0.078180298 0.11623041 0.509 45 45 45
-0.077462032 0.11600206 0.50800002 46 46 46
-0.076745994 0.11577372 0.50700003 47 47 47
-0.04251302 0.1089232 0.47700003 33 33 33
-0.041982807 0.1089232 0.47700003 33 33 33
-0.041365694 0.10869484 0.47600001 33 33 33
-0.040750805 0.1084665 0.47500002 30 30 30
-0.040222816 0.1084665 0.47500002 26 26 26
-0.078746073 0.11679619 0.509 43 43 43
-0.078180298 0.11679619 0.509 45 45 45
-0.077462032 0.11656673 0.50800002 47 46 46
-0.076897368 0.11656673 0.50800002 48 47 47
-0.041982807 0.10945341 0.47700003 32 32 32
-0.041365694 0.10922394 0.47600001 31 31 31
-0.040836595 0.10922394 0.47600001 31 31 31
-0.040307496 0.10922394 0.47600001 30 30 30
-0.078746073 0.11736197 0.509 41 40 40
-0.078180298 0.11736197 0.509 46 45 45
-0.077614516 0.11736197 0.509 47 46 46
-0.076897368 0.1171314 0.50800002 49 48 48
-0.040307496 0.10975304 0.47600001 24 24 24
-0.039778396 0.10975304 0.47600001 24 24 24
-0.039166842 0.10952247 0.47500002 25 25 25
-0.079311855 0.11792774 0.509 39 38 38
-0.078746073 0.11792774 0.509 47 46 46
-0.078180298 0.11792774 0.509 49 48 48
-0.077614516 0.11792774 0.509 49 48 48
-0.076897368 0.11769607 0.50800002 51 50 50
-0.039249297 0.11028214 0.47600001 26 26 26
-0.078746073 0.11849353 0.509 46 45 45
-0.078180298 0.11849353 0.509 48 47 47
-0.078746073 0.11905931 0.509 45 45 45
-0.078180298 0.11905931 0.509 47 47 47
-0.078746073 0.11962509 0.509 48 48 48
-0.078180298 0.11962509 0.509 46 46 46
-0.079877637 0.12019087 0.509 44 44 44
-0.079311855 0.12019087 0.509 48 48 48
-0.078746073 0.12019087 0.509 48 48 48
-0.078180298 0.12019087 0.509 46 46 46
-0.028607095 0.1126904 0.47500002 36 36 36
-0.078746073 0.12132243 0.509 57 57 57
-0.078180298 0.12132243 0.509 40 40 40
-0.028607095 0.11321838 0.47500002 27 27 27
-0.028079107 0.11321838 0.47500002 34 34 34
-0.028607095 0.11374637 0.47500002 29 29 29
-0.028079107 0.11374637 0.47500002 33 33 33
-0.02755112 0.11427435 0.47500002 32 32 32
-0.027080024 0.11451493 0.47600001 31 31 31
-0.026550924 0.11451493 0.47600001 31 31 31
-0.026076494 0.11475551 0.47700003 30 30 30
-0.025546284 0.11475551 0.47700003 30 29 29
-0.025016073 0.11475551 0.47700003 28 27 27
-0.026550924 0.11504403 0.47600001 29 29 29
-0.026076494 0.11528572 0.47700003 27 27 27
-0.025546284 0.11528572 0.47700003 27 27 27
-0.025016073 0.11528572 0.47700003 25 25 25
-0.024537196 0.11552741 0.47800002 25 24 24
-0.024005871 0.11552741 0.47800002 26 25 25
-0.026550924 0.11557313 0.47600001 29 29 29
-0.026021825 0.11557313 0.47600001 26 26 26
-0.025546284 0.11581593 0.47700003 26 26 26
-0.025016073 0.11581593 0.47700003 25 25 25
-0.024537196 0.11605873 0.47800002 26 25 25
-0.024005871 0.11605873 0.47800002 27 26 26
-0.02347455 0.11605873 0.47800002 30 29 29
-0.022991227 0.11630154 0.47900003 31 30 30
-0.024537196 0.11659006 0.47800002 26 25 25
-0.024005871 0.11659006 0.47800002 27 26 26
-0.02347455 0.11659006 0.47800002 31 30 30
-0.022991227 0.11683398 0.47900003 31 30 30
-0.022458794 0.11683398 0.47900003 27 26 26
-0.021972135 0.11707789 0.48000002 26 25 25
-0.02347455 0.11712138 0.47800002 27 26 26
-0.022991227 0.11736641 0.47900003 27 26 26
-0.022458794 0.11736641 0.47900003 26 25 25
-0.02192636 0.11736641 0.47900003 27 26 26
-0.021438589 0.11761143 0.48000002 28 27 27
-0.020905046 0.11761143 0.48000002 28 27 27
-0.02347455 0.1176527 0.47800002 29 29 29
-0.022991227 0.11789884 0.47900003 29 29 29
-0.022458794 0.11789884 0.47900003 27 27 27
-0.02192636 0.11789884 0.47900003 26 26 26
-0.021438589 0.11814497 0.48000002 26 26 26
-0.020905046 0.11814497 0.48000002 27 27 27
-0.02347455 0.11818402 0.47800002 29 29 29
-0.022943228 0.11818402 0.47800002 30 30 30
-0.022458794 0.11843128 0.47900003 29 29 29
-0.02192636 0.11843128 0.47900003 27 27 27
-0.021438589 0.11867852 0.48000002 27 27 27
-0.020905046 0.11867852 0.48000002 29 29 29
-0.0203715 0.11867852 0.48000002 30 30 30
-0.019837955 0.11867852 0.48000002 31 31 31
-0.02347455 0.11871535 0.47800002 29 29 29
-0.022943228 0.11871535 0.47800002 30 30 30
-0.022458794 0.11896371 0.47900003 30 30 30
-0.02192636 0.11896371 0.47900003 29 29 29
-0.021393927 0.11896371 0.47900003 29 29 29
-0.020905046 0.11921206 0.48000002 30 30 30
-0.022411907 0.11924667 0.47800002 30 30 30
-0.02192636 0.11949614 0.47900003 30 30 30
-0.022411907 0.11977799 0.47800002 30 30 30
-0.02192636 0.12002858 0.47900003 29 29 29
-0.023425441 0.12005761 0.47700003 29 29 29
-0.022943228 0.12030931 0.47800002 27 27 27
-0.022411907 0.12030931 0.47800002 27 27 27
-0.021880584 0.12030931 0.47800002 26 26 26
-0.023425441 0.12058783 0.47700003 29 29 29
-0.02289523 0.12058783 0.47700003 26 26 26
-0.022411907 0.12084063 0.47800002 26 26 26
-0.021880584 0.12084063 0.47800002 26 26 26
-0.021393927 0.12109344 0.47900003 26 26 26
-0.020861493 0.12109344 0.47900003 27 27 27
-0.024434529 0.12086412 0.47600001 30 30 30
-0.023955651 0.12111804 0.47700003 30 30 30
-0.016237332 0.12558541 0.48400003 36 36 36
-0.015731776 0.12584488 0.48500001 37 37 37
-0.016270878 0.12638398 0.48500001 36 36 36
-0.015731776 0.12638398 0.48500001 37 37 37
-0.018313309 0.126138 0.48200002 31 31 31
-0.01777754 0.126138 0.48200002 33 33 33
-0.017277541 0.1263997 0.48300001 36 36 36
-0.016775321 0.12666139 0.48400003 37 37 37
-0.018313309 0.12667376 0.48200002 30 30 30
-0.01777754 0.12667376 0.48200002 33 33 33
-0.018313309 0.12720953 0.48200002 31 31 31
-0.01777754 0.12720953 0.48200002 33 33 33
-0.017313313 0.12773737 0.48400003 34 34 34
-0.016775321 0.12773737 0.48400003 36 36 36
-0.018313309 0.1277453 0.48200002 31 31 31
-0.017814422 0.12801033 0.48300001 32 32 32
-0.017277541 0.12801033 0.48300001 33 33 33
-0.016775321 0.12827536 0.48400003 33 33 33
-0.019344628 0.12801494 0.48100004 27 26 26
-0.01880997 0.12801494 0.48100004 30 29 29
-0.018313309 0.12828107 0.48200002 30 30 30
-0.017814422 0.12854721 0.48300001 30 30 30
-0.017313313 0.12881336 0.48400003 31 31 31
-0.016775321 0.12881336 0.48400003 32 32 32
-0.021393927 0.12801507 0.47900003 23 23 23
-0.020861493 0.12801507 0.47900003 20 20 20
-0.0203715 0.12828232 0.48000002 21 20 20
-0.019837955 0.12828232 0.48000002 25 24 24
-0.019344628 0.12854958 0.48100004 26 26 26
-0.01880997 0.12854958 0.48100004 29 29 29
-0.018313309 0.12881683 0.48200002 30 30 30
-0.017814422 0.12908408 0.48300001 30 30 30
-0.021393927 0.12854752 0.47900003 23 23 23
-0.020861493 0.12854752 0.47900003 22 22 22
-0.0203715 0.12881587 0.48000002 23 23 23
-0.019837955 0.12881587 0.48000002 24 24 24
-0.019344628 0.12908424 0.48100004 25 25 25
-0.01880997 0.12908424 0.48100004 26 26 26
-0.018313309 0.12935261 0.48200002 27 27 27
-0.017814422 0.12962097 0.48300001 30 30 30
-0.021393927 0.12907994 0.47900003 22 22 22
-0.020905046 0.12934941 0.48000002 22 22 22
-0.0203715 0.12934941 0.48000002 22 22 22
-0.019837955 0.12934941 0.48000002 23 23 23
-0.019344628 0.1296189 0.48100004 23 23 23
-0.018849077 0.12988837 0.48200002 24 24 24
-0.021393927 0.12961239 0.47900003 23 23 23
-0.020905046 0.12988296 0.48000002 23 23 23
-0.0203715 0.12988296 0.48000002 23 23 23
-0.019879285 0.13015357 0.48100004 23 23 23
-0.019344628 0.13015357 0.48100004 23 23 23
-0.018849077 0.13042414 0.48200002 24 24 24
-0.018313309 0.13042414 0.48200002 26 26 26
-0.017814422 0.13069473 0.48300001 30 30 30
-0.017313313 0.13096532 0.48400003 31 31 31
-0.016809981 0.13123591 0.48500001 32 32 32
-0.020905046 0.1304165 0.48000002 22 22 22
-0.0203715 0.1304165 0.48000002 22 22 22
-0.019879285 0.13068821 0.48100004 23 23 23
-0.019344628 0.13068821 0.48100004 24 24 24
-0.018849077 0.13095991 0.48200002 26 26 26
-0.018351303 0.13123161 0.48300001 30 30 30
-0.017814422 0.13123161 0.48300001 30 30 30
-0.017313313 0.13150331 0.48400003 30 30 30
-0.016809981 0.13177501 0.48500001 31 31 31
-0.016304428 0.13204671 0.48600003 31 31 31
-0.015796648 0.13231841 0.48700002 29 29 29
-0.015286649 0.13259012 0.48800004 26 26 26
-0.014744212 0.13259012 0.48800004 25 25 25
-0.014230875 0.13286181 0.48900002 26 26 26
-0.013715317 0.13313352 0.49000001 27 27 27
-0.013197536 0.13340522 0.49100003 29 29 29
-0.012677531 0.13367692 0.49200001 29 29 29
-0.020905046 0.13095005 0.48000002 22 22 22
-0.019879285 0.13122287 0.48100004 24 24 24
-0.019344628 0.13122287 0.48100004 25 25 25
-0.018849077 0.13149568 0.48200002 27 27 27
-0.018351303 0.13176849 0.48300001 29 29 29
-0.017814422 0.13176849 0.48300001 29 29 29
-0.017313313 0.13204131 0.48400003 27 27 27
-0.016809981 0.13231412 0.48500001 27 27 27
-0.016270878 0.13231412 0.48500001 27 27 27
-0.015764212 0.13258694 0.48600003 27 27 27
-0.015255324 0.13285974 0.48700002 26 26 26
-0.014744212 0.13313256 0.48800004 26 26 26
-0.014230875 0.13340537 0.48900002 26 26 26
-0.013715317 0.13367818 0.49000001 29 29 29
-0.013197536 0.13395099 0.49100003 29 29 29
-0.012651764 0.13395099 0.49100003 29 29 29
-0.012130646 0.1342238 0.49200001 29 29 29
-0.011583762 0.1342238 0.49200001 30 30 30
-0.011059311 0.13449663 0.49300003 31 31 31
-0.020905046 0.13148361 0.48000002 23 23 23
-0.019879285 0.13175754 0.48100004 23 23 23
-0.019384844 0.13203146 0.48200002 24 24 24
-0.018849077 0.13203146 0.48200002 25 25 25
-0.018351303 0.13230538 0.48300001 25 25 25
-0.017814422 0.13230538 0.48300001 25 25 25
-0.017313313 0.13257931 0.48400003 25 25 25
-0.016809981 0.13285322 0.48500001 26 26 26
-0.016270878 0.13285322 0.48500001 27 27 27
-0.015764212 0.13312715 0.48600003 29 29 29
-0.015255324 0.13340108 0.48700002 27 27 27
-0.014744212 0.13367501 0.48800004 29 29 29
-0.014230875 0.13394892 0.48900002 29 29 29
-0.013715317 0.13422285 0.49000001 30 30 30
-0.013170656 0.13422285 0.49000001 30 30 30
-0.012651764 0.13449678 0.49100003 29 29 29
-0.012130646 0.13477069 0.49200001 29 29 29
-0.011583762 0.13477069 0.49200001 29 29 29
-0.011059311 0.13504462 0.49300003 30 30 30
-0.020905046 0.13201715 0.48000002 23 23 23
-0.017313313 0.13311729 0.48400003 29 29 29
-0.016775321 0.13311729 0.48400003 30 30 30
-0.016270878 0.13339232 0.48500001 30 30 30
-0.015764212 0.13366736 0.48600003 30 30 30
-0.015255324 0.1339424 0.48700002 30 30 30
-0.014744212 0.13421744 0.48800004 30 30 30
-0.014201774 0.13421744 0.48800004 31 31 31
-0.013687327 0.13449247 0.48900002 31 31 31
-0.013170656 0.1347675 0.49000001 30 30 30
-0.012625996 0.1347675 0.49000001 27 27 27
-0.01210599 0.13504253 0.49100003 26 26 26
-0.011583762 0.13531758 0.49200001 26 26 26
-0.011036878 0.13531758 0.49200001 26 26 26
-0.020905046 0.1325507 0.48000002 23 23 23
-0.019879285 0.13282685 0.48100004 24 24 24
-0.019384844 0.133103 0.48200002 24 24 24
-0.018849077 0.133103 0.48200002 25 25 25
-0.018313309 0.133103 0.48200002 26 26 26
-0.017814422 0.13337913 0.48300001 30 30 30
-0.017313313 0.13365529 0.48400003 30 30 30
-0.016775321 0.13365529 0.48400003 29 29 29
-0.016270878 0.13393143 0.48500001 29 29 29
-0.015764212 0.13420759 0.48600003 30 30 30
-0.015255324 0.13448372 0.48700002 29 29 29
-0.014713997 0.13448372 0.48700002 27 27 27
-0.014201774 0.13475987 0.48800004 30 30 30
-0.013687327 0.13503602 0.48900002 32 32 32
-0.013170656 0.13531217 0.49000001 29 29 29
-0.012625996 0.13531217 0.49000001 27 27 27
-0.01210599 0.13558832 0.49100003 26 26 26
-0.011560218 0.13558832 0.49100003 25 25 25
-0.011036878 0.13586447 0.49200001 25 25 25
-0.020905046 0.13308424 0.48000002 22 22 22
-0.019879285 0.1333615 0.48100004 25 25 25
-0.019344628 0.1333615 0.48100004 25 25 25
-0.018849077 0.13363875 0.48200002 25 25 25
-0.018313309 0.13363875 0.48200002 27 27 27
-0.017814422 0.13391601 0.48300001 30 30 30
-0.017313313 0.13419327 0.48400003 30 30 30
-0.016775321 0.13419327 0.48400003 29 29 29
-0.016270878 0.13447052 0.48500001 25 25 25
-0.015764212 0.13474779 0.48600003 22 22 22
-0.015223999 0.13474779 0.48600003 17 17 17
-0.014713997 0.13502505 0.48700002 16 16 16
-0.014201774 0.13530231 0.48800004 20 20 20
-0.013659337 0.13530231 0.48800004 24 24 24
-0.013143778 0.13557957 0.48900002 25 25 25
-0.012625996 0.13585682 0.49000001 27 27 27
-0.012081334 0.13585682 0.49000001 26 26 26
-0.011560218 0.13613409 0.49100003 26 26 26
-0.020905046 0.13361779 0.48000002 24 23 23
-0.019879285 0.13389616 0.48100004 25 25 25
-0.019344628 0.13389616 0.48100004 25 25 25
-0.018849077 0.13417453 0.48200002 25 25 25
-0.018313309 0.13417453 0.48200002 27 27 27
-0.017814422 0.13445289 0.48300001 30 30 30
-0.017313313 0.13473128 0.48400003 30 30 30
-0.016775321 0.13473128 0.48400003 27 27 27
-0.016270878 0.13500963 0.48500001 20 20 20
-0.015731776 0.13500963 0.48500001 20 20 20
-0.015223999 0.13528802 0.48600003 22 22 22
-0.014713997 0.13556638 0.48700002 22 22 22
-0.014201774 0.13584475 0.48800004 20 20 20
-0.013659337 0.13584475 0.48800004 22 22 22
-0.013143778 0.13612312 0.48900002 24 24 24
-0.012625996 0.13640149 0.49000001 27 27 27
-0.012081334 0.13640149 0.49000001 29 29 29
-0.011560218 0.13667986 0.49100003 26 26 26
-0.016270878 0.13554874 0.48500001 22 22 22
-0.015731776 0.13554874 0.48500001 20 20 20
-0.015223999 0.13582823 0.48600003 23 23 23
-0.014713997 0.1361077 0.48700002 24 24 24
-0.014172671 0.1361077 0.48700002 23 23 23
-0.013659337 0.13638718 0.48800004 22 22 22
-0.013143778 0.13666667 0.48900002 22 22 22
-0.012600228 0.13666667 0.48900002 24 24 24
-0.012081334 0.13694614 0.49000001 26 26 26
-0.016270878 0.13608785 0.48500001 23 23 23
-0.015731776 0.13608785 0.48500001 23 23 23
-0.015223999 0.13636844 0.48600003 22 22 22
-0.014713997 0.13664903 0.48700002 20 20 20
-0.014172671 0.13664903 0.48700002 19 19 19
-0.013659337 0.13692963 0.48800004 19 19 19
-0.013116899 0.13692963 0.48800004 19 19 19
-0.012600228 0.13721022 0.48900002 20 20 20
-0.012081334 0.13749081 0.49000001 23 23 23
-0.015223999 0.13690865 0.48600003 22 22 22
-0.014683784 0.13690865 0.48600003 19 19 19
-0.015223999 0.13744888 0.48600003 23 22 22
-0.014683784 0.13744888 0.48600003 21 20 20
-0.015223999 0.13798907 0.48600003 24 23 23
-0.014683784 0.13798907 0.48600003 23 22 22
-0.028019994 0.13721633 0.47400004 33 33 33
-0.028019994 0.13774319 0.47400004 24 24 24
-0.027493119 0.13774319 0.47400004 12 11 11
-0.026966244 0.13774319 0.47400004 20 19 19
-0.028486645 0.13797836 0.47300002 23 23 23
-0.028019994 0.13827008 0.47400004 18 18 18
-0.027493119 0.13827008 0.47400004 17 16 16
-0.026966244 0.13827008 0.47400004 19 18 18
-0.028486645 0.13850412 0.47300002 25 25 25
-0.02796088 0.13850412 0.47300002 20 20 20
-0.034125146 0.13844202 0.47100002 30 30 30
-0.033601604 0.13844202 0.47100002 34 34 34
-0.033078063 0.13844202 0.47100002 36 36 36
-0.028486645 0.13902989 0.47300002 23 23 23
-0.02796088 0.13902989 0.47300002 20 20 20
-0.027493119 0.13932383 0.47400004 20 19 19
-0.026966244 0.13932383 0.47400004 20 19 19
-0.033601604 0.13896556 0.47100002 32 32 32
-0.033078063 0.13896556 0.47100002 33 33 33
-0.028486645 0.13955565 0.47300002 22 22 22
-0.02796088 0.13955565 0.47300002 20 20 20
-0.027435116 0.13955565 0.47300002 23 22 22
-0.026966244 0.13985071 0.47400004 21 20 20
-0.019344628 0.14191601 0.48100004 23 22 22
-0.01880997 0.14191601 0.48100004 23 22 22
-0.033601604 0.13948911 0.47100002 31 31 31
-0.033078063 0.13948911 0.47100002 30 30 30
-0.028486645 0.14008142 0.47300002 22 22 22
-0.02796088 0.14008142 0.47300002 22 22 22
-0.027435116 0.14008142 0.47300002 25 24 24
-0.026966244 0.14037758 0.47400004 25 24 24
-0.033601604 0.14001265 0.47100002 31 30 30
-0.033078063 0.14001265 0.47100002 30 29 29
-0.033601604 0.14053619 0.47100002 34 33 33
-0.033078063 0.14053619 0.47100002 32 31 31
-0.033601604 0.14105973 0.47100002 46 45 45
-0.033078063 0.14105973 0.47100002 46 45 45
-0.033601604 0.14158328 0.47100002 41 40 40
-0.033078063 0.14158328 0.47100002 42 41 41
-0.032554522 0.14158328 0.47100002 40 39 39
-0.032030981 0.14158328 0.47100002 38 37 37
-0.029475724 0.14188388 0.47200003 25 25 25
-0.029012408 0.14218448 0.47300002 24 24 24
-0.034125146 0.14210682 0.47100002 33 32 32
-0.033601604 0.14210682 0.47100002 40 39 39
-0.033078063 0.14210682 0.47100002 41 40 40
-0.032554522 0.14210682 0.47100002 41 40 40
-0.03209899 0.14240852 0.47200003 41 40 40
-0.031574339 0.14240852 0.47200003 33 33 33
-0.031049684 0.14240852 0.47200003 32 32 32
-0.030525032 0.14240852 0.47200003 30 30 30
-0.030000379 0.14240852 0.47200003 25 25 25
-0.029538173 0.14271024 0.47300002 23 23 23
-0.029012408 0.14271024 0.47300002 23 23 23
-0.034125146 0.14263035 0.47100002 44 43 43
-0.033601604 0.14263035 0.47100002 44 44 44
-0.033148296 0.14293319 0.47200003 44 44 44
-0.029538173 0.14323601 0.47300002 24 24 24
-0.029012408 0.14323601 0.47300002 24 24 24
-0.035695769 0.14315389 0.47100002 31 30 30
-0.029538173 0.14376177 0.47300002 23 23 23
-0.029012408 0.14376177 0.47300002 24 24 24
-0.028486645 0.14376177 0.47300002 25 25 25
-0.02796088 0.14376177 0.47300002 25 25 25
-0.036296211 0.14398248 0.47200003 27 26 26
-0.03577156 0.14398248 0.47200003 28 27 27
-0.030589703 0.14428754 0.47300002 23 23 23
-0.030063938 0.14428754 0.47300002 23 23 23
-0.029538173 0.14428754 0.47300002 23 23 23
-0.029012408 0.14428754 0.47300002 23 23 23
-0.028486645 0.14428754 0.47300002 23 23 23
-0.02796088 0.14428754 0.47300002 23 23 23
-0.036820862 0.14450714 0.47200003 26 25 25
-0.036296211 0.14450714 0.47200003 26 25 25
-0.03577156 0.14450714 0.47200003 27 26 26
-0.030589703 0.1448133 0.47300002 24 24 24
-0.030063938 0.1448133 0.47300002 23 23 23
-0.029538173 0.1448133 0.47300002 23 23 23
-0.029012408 0.1448133 0.47300002 23 23 23
-0.028486645 0.1448133 0.47300002 23 23 23
-0.02796088 0.1448133 0.47300002 23 23 23
-0.027493119 0.14511946 0.47400004 24 23 23
-0.026966244 0.14511946 0.47400004 23 22 22
-0.037345517 0.14503179 0.47200003 23 22 22
-0.036820862 0.14503179 0.47200003 23 22 22
-0.036296211 0.14503179 0.47200003 25 24 24
-0.03577156 0.14503179 0.47200003 26 25 25
-0.029538173 0.14533906 0.47300002 23 23 23
-0.029012408 0.14533906 0.47300002 22 22 22
-0.028486645 0.14533906 0.47300002 22 22 22
-0.02796088 0.14533906 0.47300002 23 23 23
-0.037345517 0.14555645 0.47200003 21 20 20
-0.036820862 0.14555645 0.47200003 21 20 20
-0.036296211 0.14555645 0.47200003 23 22 22
-0.03577156 0.14555645 0.47200003 24 23 23
-0.035246905 0.14555645 0.47200003 25 25 25
-0.034722254 0.14555645 0.47200003 27 27 27
-0.030589703 0.14586481 0.47300002 24 24 24
-0.030063938 0.14586481 0.47300002 23 23 23
-0.029538173 0.14586481 0.47300002 23 22 22
-0.029012408 0.14586481 0.47300002 23 22 22
-0.028486645 0.14586481 0.47300002 23 22 22
-0.02796088 0.14586481 0.47300002 23 22 22
-0.035246905 0.1460811 0.47200003 24 24 24
-0.034722254 0.1460811 0.47200003 27 27 27
-0.030589703 0.14639059 0.47300002 23 23 23
-0.030063938 0.14639059 0.47300002 22 22 22
-0.035246905 0.14660574 0.47200003 24 24 24
-0.034722254 0.14660574 0.47200003 27 27 27
-0.069294557 0.15523505 0.49800003 20 19 19
-0.036373109 0.14744212 0.47300002 21 20 20
-0.03577156 0.14713041 0.47200003 21 20 20
-0.035321578 0.14744212 0.47300002 23 23 23
-0.034722254 0.14713041 0.47200003 27 27 27
-0.069294557 0.15578859 0.49800003 20 19 19
-0.036373109 0.14796788 0.47300002 18 18 18
-0.035847344 0.14796788 0.47300002 20 20 20
-0.035321578 0.14796788 0.47300002 24 24 24
-0.034795817 0.14796788 0.47300002 27 27 27
-0.071667619 0.15791185 0.50300002 19 18 18
-0.068602964 0.15602821 0.49700001 20 19 19
-0.037424635 0.14849365 0.47300002 20 19 19
-0.036898874 0.14849365 0.47300002 19 18 18
-0.036373109 0.14849365 0.47300002 19 19 19
-0.035847344 0.14849365 0.47300002 22 22 22
-0.035321578 0.14849365 0.47300002 25 25 25
-0.034795817 0.14849365 0.47300002 26 26 26
-0.034270052 0.14849365 0.47300002 26 26 26
-0.033744287 0.14849365 0.47300002 27 27 27
-0.070967138 0.1581559 0.50200003 20 19 19
-0.070268884 0.15784086 0.50100005 21 20 20
-0.069572844 0.15752579 0.5 21 20 20
-0.038476165 0.14901941 0.47300002 20 19 19
-0.0379504 0.14901941 0.47300002 20 19 19
-0.037424635 0.14901941 0.47300002 20 19 19
-0.036898874 0.14901941 0.47300002 20 19 19
-0.070967138 0.15871391 0.50200003 20 19 19
-0.070268884 0.15839775 0.50100005 21 20 20
-0.069572844 0.15808158 0.5 21 20 20
-0.068187453 0.15744926 0.49800003 23 22 22
-0.067362271 0.15681693 0.49600002 23 22 22
-0.038476165 0.14954518 0.47300002 21 20 20
-0.0379504 0.14954518 0.47300002 19 18 18
-0.037424635 0.14954518 0.47300002 19 18 18
-0.036898874 0.14954518 0.47300002 20 19 19
-0.070409141 0.15927191 0.50200003 20 19 19
-0.069711998 0.15895464 0.50100005 21 20 20
-0.06749808 0.15768552 0.49700001 23 22 22
-0.066810943 0.15736826 0.49600002 23 22 22
-0.038557511 0.15038821 0.47400004 21 20 20
-0.0379504 0.15007094 0.47300002 20 19 19
-0.037424635 0.15007094 0.47300002 19 18 18
-0.036898874 0.15007094 0.47300002 21 20 20
-0.069711998 0.15951154 0.50100005 20 20 20
-0.066945642 0.15823798 0.49700001 20 20 20
-0.066126026 0.15760121 0.49500003 20 19 19
-0.038557511 0.1509151 0.47400004 21 20 20
-0.038030636 0.1509151 0.47400004 21 20 20
-0.037424635 0.15059671 0.47300002 21 20 20
-0.036898874 0.15059671 0.47300002 21 20 20
-0.069155104 0.16006841 0.50100005 20 20 20
-0.067080341 0.15910991 0.49800003 17 17 17
-0.066259615 0.15847091 0.49600002 19 18 18
-0.065575801 0.15815142 0.49500003 21 20 20
-0.067080341 0.15966347 0.49800003 21 20 20
-0.066393204 0.15934286 0.49700001 21 20 20
-0.06570828 0.15902226 0.49600002 21 20 20
-0.068461291 0.16086045 0.5 20 20 20
-0.061519649 0.15895218 0.48900002 23 22 22
-0.06085141 0.15862712 0.48800004 21 20 20
-0.060308971 0.15862712 0.48800004 21 20 20
-0.059644058 0.15830207 0.48700002 21 20 20
-0.061519649 0.15949573 0.48900002 21 20 20
-0.06085141 0.15916955 0.48800004 20 19 19
-0.060185388 0.15884338 0.48700002 19 19 19
-0.059644058 0.15884338 0.48700002 18 18 18
-0.059102733 0.15884338 0.48700002 18 18 18
-0.058561407 0.15884338 0.48700002 18 18 18
-0.063796006 0.16167568 0.49400002 25 24 24
-0.062317036 0.16069384 0.49100003 24 23 23
-0.061519649 0.16003928 0.48900002 23 22 22
-0.060976103 0.16003928 0.48900002 21 20 20
-0.060308971 0.159712 0.48800004 19 19 19
-0.059644058 0.15938473 0.48700002 18 18 18
-0.059102733 0.15938473 0.48700002 17 17 17
-0.058561407 0.15938473 0.48700002 17 17 17
-0.063925147 0.16255316 0.49500003 23 22 22
-0.062317036 0.16123961 0.49100003 23 22 22
-0.061645456 0.1609112 0.49000001 24 23 23
-0.060976103 0.16058283 0.48900002 25 24 24
-0.060308971 0.16025443 0.48800004 25 24 24
-0.059644058 0.15992604 0.48700002 23 22 22
-0.059102733 0.15992604 0.48700002 18 18 18
-0.058561407 0.15992604 0.48700002 17 17 17
-0.063925147 0.16310339 0.49500003 23 22 22
-0.062443953 0.16211487 0.49200001 23 22 22
-0.061645456 0.16145587 0.49000001 24 23 23
-0.060976103 0.16112638 0.48900002 26 25 25
-0.060308971 0.16079688 0.48800004 26 25 25
-0.059766535 0.16079688 0.48800004 24 23 23
-0.059102733 0.16046737 0.48700002 21 20 20
-0.058561407 0.16046737 0.48700002 18 17 17
-0.062443953 0.16266176 0.49200001 28 27 27
-0.061771262 0.16233115 0.49100003 27 26 26
-0.061100796 0.16200052 0.49000001 26 25 25
-0.060432553 0.16166992 0.48900002 25 24 24
-0.059766535 0.16133931 0.48800004 24 23 23
-0.059224099 0.16133931 0.48800004 21 20 20
-0.058561407 0.16100869 0.48700002 19 18 18
-0.058020081 0.16100869 0.48700002 16 16 16
-0.057478756 0.16100869 0.48700002 16 16 16
-0.062443953 0.16320865 0.49200001 27 26 26
-0.061771262 0.16287692 0.49100003 27 26 26
-0.061100796 0.16254519 0.49000001 26 25 25
-0.060432553 0.16221347 0.48900002 25 24 24
-0.059766535 0.16188176 0.48800004 23 22 22
-0.059224099 0.16188176 0.48800004 20 19 19
-0.058681659 0.16188176 0.48800004 19 18 18
-0.058020081 0.16155003 0.48700002 17 17 17
-0.057478756 0.16155003 0.48700002 17 17 17
-0.056937426 0.16155003 0.48700002 17 17 17
-0.056396101 0.16155003 0.48700002 19 19 19
-0.058139224 0.16242419 0.48800004 18 17 17
-0.057478756 0.16209134 0.48700002 18 17 17
-0.056937426 0.16209134 0.48700002 18 17 17
-0.056396101 0.16209134 0.48700002 19 18 18
-0.055854775 0.16209134 0.48700002 22 22 22
-0.055199869 0.16175851 0.48600003 26 26 26
-0.054659657 0.16175851 0.48600003 29 29 29
-0.054119442 0.16175851 0.48600003 31 31 31
-0.053579226 0.16175851 0.48600003 30 30 30
-0.053039014 0.16175851 0.48600003 29 29 29
-0.052498799 0.16175851 0.48600003 29 29 29
-0.051958583 0.16175851 0.48600003 30 30 30
-0.058139224 0.16296662 0.48800004 18 17 17
-0.057596784 0.16296662 0.48800004 18 17 17
-0.056937426 0.16263267 0.48700002 18 17 17
-0.056396101 0.16263267 0.48700002 19 18 18
-0.055854775 0.16263267 0.48700002 20 20 20
-0.055313449 0.16263267 0.48700002 24 24 24
-0.054659657 0.16229874 0.48600003 29 29 29
-0.054119442 0.16229874 0.48600003 30 30 30
-0.053579226 0.16229874 0.48600003 30 30 30
-0.053039014 0.16229874 0.48600003 29 29 29
-0.052498799 0.16229874 0.48600003 29 29 29
-0.051958583 0.16229874 0.48600003 31 31 31
-0.051418371 0.16229874 0.48600003 31 31 31
-0.050878156 0.16229874 0.48600003 27 27 27
-0.050234362 0.16196477 0.48500001 25 25 25
-0.049695261 0.16196477 0.48500001 26 25 25
-0.049156159 0.16196477 0.48500001 26 25 25
-0.048617054 0.16196477 0.48500001 26 26 26
-0.047978822 0.16163084 0.48400003 26 26 26
-0.055854775 0.163174 0.48700002 21 20 20
-0.055313449 0.163174 0.48700002 24 23 23
-0.054772124 0.163174 0.48700002 25 25 25
-0.054119442 0.16283895 0.48600003 29 29 29
-0.053579226 0.16283895 0.48600003 29 29 29
-0.053039014 0.16283895 0.48600003 30 30 30
-0.052498799 0.16283895 0.48600003 30 30 30
-0.051958583 0.16283895 0.48600003 30 30 30
-0.051418371 0.16283895 0.48600003 29 29 29
-0.050773468 0.16250388 0.48500001 27 27 27
-0.050234362 0.16250388 0.48500001 27 27 27
-0.049695261 0.16250388 0.48500001 27 26 26
-0.049156159 0.16250388 0.48500001 27 26 26
-0.048617054 0.16250388 0.48500001 26 26 26
-0.048077952 0.16250388 0.48500001 25 25 25
-0.054772124 0.16371533 0.48700002 25 25 25
-0.054119442 0.16337916 0.48600003 29 29 29
-0.053579226 0.16337916 0.48600003 31 31 31
-0.053039014 0.16337916 0.48600003 31 31 31
-0.052498799 0.16337916 0.48600003 30 30 30
-0.051958583 0.16337916 0.48600003 26 26 26
-0.051418371 0.16337916 0.48600003 25 25 25
-0.050878156 0.16337916 0.48600003 27 27 27
-0.050234362 0.16304298 0.48500001 27 27 27
-0.049695261 0.16304298 0.48500001 28 27 27
-0.049156159 0.16304298 0.48500001 28 27 27
-0.048617054 0.16304298 0.48500001 27 26 26
-0.048077952 0.16304298 0.48500001 27 26 26
-0.053579226 0.16391939 0.48600003 30 30 30
-0.053039014 0.16391939 0.48600003 31 31 31
-0.052498799 0.16391939 0.48600003 31 31 31
-0.051958583 0.16391939 0.48600003 29 29 29
-0.051418371 0.16391939 0.48600003 26 26 26
-0.050773468 0.16358209 0.48500001 29 29 29
-0.050234362 0.16358209 0.48500001 27 27 27
-0.049695261 0.16358209 0.48500001 27 27 27
-0.049156159 0.16358209 0.48500001 27 27 27
-0.048617054 0.16358209 0.48500001 29 29 29
-0.053579226 0.16445959 0.48600003 31 31 31
-0.053039014 0.16445959 0.48600003 33 33 33
-0.052498799 0.16445959 0.48600003 37 37 37
-0.051958583 0.16445959 0.48600003 37 37 37
-0.051418371 0.16445959 0.48600003 36 36 36
-0.050878156 0.16445959 0.48600003 30 30 30
-0.050234362 0.1641212 0.48500001 27 27 27
-0.049695261 0.1641212 0.48500001 27 27 27
-0.049156159 0.1641212 0.48500001 27 27 27
-0.048617054 0.1641212 0.48500001 27 27 27
-0.048077952 0.1641212 0.48500001 27 27 27
0 0 0 1 0 0 0 1 0 0 0 1 0 0 0 0 0 771 1 0 0
