ply
format ascii 1.0
comment PCL generated
element vertex 1031
property float x
property float y
property float z
property uchar red
property uchar green
property uchar blue
element camera 0
property float view_px
property float view_py
property float view_pz
property float x_axisx
property float x_axisy
property float x_axisz
property float y_axisx
property float y_axisy
property float y_axisz
property float z_axisx
property float z_axisy
property float z_axisz
property float focal
property float scalex
property float scaley
property float centerx
property float centery
property int viewportx
property int viewporty
property float k1
property float k2
end_header
0.038754798 -0.019458633 0.46600002 151 16 28
0.039357055 -0.01950039 0.46700001 151 16 28
0.039876152 -0.01950039 0.46700001 149 18 29
0.040481746 -0.019542148 0.46800002 149 18 29
0.041089561 -0.019583903 0.46900001 145 20 31
0.041699603 -0.019625662 0.47000003 147 22 33
0.042222034 -0.019625662 0.47000003 150 38 47
0.042835411 -0.019667417 0.47100002 147 35 44
0.043451011 -0.019709175 0.47200003 139 42 48
0.043975662 -0.019709175 0.47200003 141 44 50
0.044500317 -0.019709175 0.47200003 125 52 53
0.045120358 -0.01975093 0.47300002 126 53 54
0.045646124 -0.01975093 0.47300002 112 64 58
0.046171889 -0.01975093 0.47300002 115 67 61
-0.01737183 -0.019143876 0.47100002 103 9 21
-0.016812515 -0.019103231 0.47000003 102 8 20
-0.016290085 -0.019103231 0.47000003 108 5 18
-0.015734108 -0.019062586 0.46900001 110 7 20
-0.015212789 -0.019062586 0.46900001 116 5 19
-0.014660147 -0.019021941 0.46800002 117 6 20
-0.014109726 -0.018981295 0.46700001 125 3 16
-0.013590631 -0.018981295 0.46700001 132 4 14
-0.013071536 -0.018981295 0.46700001 133 5 15
-0.012525563 -0.01894065 0.46600002 137 5 12
-0.01200758 -0.01894065 0.46600002 137 5 12
-0.01146494 -0.018900005 0.46500003 140 4 10
-0.010948068 -0.018900005 0.46500003 140 4 10
-0.010408764 -0.01885936 0.46400002 144 6 10
-0.0098930029 -0.01885936 0.46400002 145 7 11
-0.0093570342 -0.018818716 0.46300003 147 6 11
-0.0088423854 -0.018818716 0.46300003 146 5 10
-0.0083277365 -0.018818716 0.46300003 146 5 10
-0.0077962116 -0.018778069 0.46200001 146 5 10
-0.0072826748 -0.018778069 0.46200001 146 3 9
-0.0067691375 -0.018778069 0.46200001 146 3 9
-0.0062556006 -0.018778069 0.46200001 146 3 9
-0.0057296348 -0.018737424 0.46100003 147 4 10
-0.005217209 -0.018737424 0.46100003 148 5 11
-0.0047047832 -0.018737424 0.46100003 148 5 9
-0.0041832635 -0.018696779 0.46000001 148 5 9
-0.0036719493 -0.018696779 0.46000001 147 4 8
-0.0031606352 -0.018696779 0.46000001 147 4 8
-0.0026435619 -0.018656135 0.45900002 151 4 9
-0.0021333592 -0.018656135 0.45900002 153 6 11
-0.0016231567 -0.018656135 0.45900002 156 6 12
-0.0011129541 -0.018656135 0.45900002 157 7 13
-0.00060143834 -0.01861549 0.45800003 160 7 16
-9.2347327e-05 -0.01861549 0.45800003 164 11 20
0.00041674371 -0.01861549 0.45800003 166 12 24
0.00092583476 -0.01861549 0.45800003 167 13 25
0.0014317927 -0.018574843 0.45700002 166 12 26
0.0019397723 -0.018574843 0.45700002 165 11 25
0.0024477516 -0.018574843 0.45700002 165 10 27
0.0029557312 -0.018574843 0.45700002 166 11 28
0.0034637104 -0.018574843 0.45700002 167 15 33
0.0039716898 -0.018574843 0.45700002 171 19 37
0.0044796695 -0.018574843 0.45700002 171 19 37
0.0049876492 -0.018574843 0.45700002 171 19 37
0.0054836031 -0.018534198 0.45600003 165 16 35
0.0059904708 -0.018534198 0.45600003 170 22 41
0.0064973389 -0.018534198 0.45600003 170 22 41
0.007004207 -0.018534198 0.45600003 168 22 43
0.0075110747 -0.018534198 0.45600003 171 25 46
0.0080003589 -0.018493554 0.45500001 171 25 46
0.0085061155 -0.018493554 0.45500001 173 27 48
0.010023385 -0.018493554 0.45500001 174 35 58
0.010529141 -0.018493554 0.45500001 176 37 60
0.020598896 -0.018452909 0.45400003 165 19 42
0.021103542 -0.018452909 0.45400003 161 15 38
0.021608187 -0.018452909 0.45400003 163 11 31
0.022112831 -0.018452909 0.45400003 158 6 26
0.022617476 -0.018452909 0.45400003 162 2 23
0.023122121 -0.018452909 0.45400003 162 2 23
0.023626765 -0.018452909 0.45400003 163 2 21
0.02413141 -0.018452909 0.45400003 164 3 22
0.024690319 -0.018493554 0.45500001 164 4 20
0.025196075 -0.018493554 0.45500001 163 3 19
0.025701832 -0.018493554 0.45500001 163 3 19
0.026207589 -0.018493554 0.45500001 163 3 19
0.026772056 -0.018534198 0.45600003 164 4 18
0.027278924 -0.018534198 0.45600003 163 3 17
0.027846726 -0.018574843 0.45700002 162 2 16
0.028354704 -0.018574843 0.45700002 162 2 16
0.028862685 -0.018574843 0.45700002 162 2 16
0.029434934 -0.01861549 0.45800003 162 2 16
0.029944025 -0.01861549 0.45800003 164 5 19
0.030453116 -0.01861549 0.45800003 167 8 22
0.031029809 -0.018656135 0.45900002 165 6 20
0.03154001 -0.018656135 0.45900002 163 4 18
0.032050215 -0.018656135 0.45900002 161 5 18
0.032560416 -0.018656135 0.45900002 162 6 19
0.033142667 -0.018696779 0.46000001 162 8 22
0.033653982 -0.018696779 0.46000001 162 8 22
0.034239568 -0.018737424 0.46100003 157 10 22
0.034751993 -0.018737424 0.46100003 157 10 22
0.035340913 -0.018778069 0.46200001 153 11 21
0.035854451 -0.018778069 0.46200001 152 10 20
0.036446709 -0.018818716 0.46300003 152 9 22
0.037041187 -0.01885936 0.46400002 153 10 23
0.037556946 -0.01885936 0.46400002 149 12 25
0.038154762 -0.018900005 0.46500003 149 12 25
0.038754798 -0.01894065 0.46600002 148 13 25
0.039357055 -0.018981295 0.46700001 148 13 25
0.039876152 -0.018981295 0.46700001 146 15 28
0.040481746 -0.019021941 0.46800002 149 18 31
0.041089561 -0.019062586 0.46900001 146 21 32
0.041699603 -0.019103231 0.47000003 149 24 35
0.042222034 -0.019103231 0.47000003 144 34 43
0.042835411 -0.019143876 0.47100002 145 35 44
0.043358952 -0.019143876 0.47100002 138 42 46
0.043975662 -0.019184522 0.47200003 140 44 48
0.044500317 -0.019184522 0.47200003 124 51 52
0.045120358 -0.019225167 0.47300002 127 54 55
0.045646124 -0.019225167 0.47300002 110 64 58
0.046171889 -0.019225167 0.47300002 113 67 61
-0.01737183 -0.018620335 0.47100002 100 9 20
-0.016848287 -0.018620335 0.47100002 100 9 20
-0.016290085 -0.018580802 0.47000003 108 5 16
-0.015767656 -0.018580802 0.47000003 110 7 18
-0.015212789 -0.018541267 0.46900001 116 6 17
-0.014691471 -0.018541267 0.46900001 116 6 17
-0.01413994 -0.018501734 0.46800002 123 3 15
-0.013590631 -0.0184622 0.46700001 132 4 12
-0.013043546 -0.018422667 0.46600002 132 4 12
-0.012525563 -0.018422667 0.46600002 136 4 11
-0.01200758 -0.018422667 0.46600002 136 4 11
-0.01146494 -0.018383134 0.46500003 139 3 9
-0.010924524 -0.0183436 0.46400002 140 4 10
-0.010408764 -0.0183436 0.46400002 143 5 9
-0.0098930029 -0.0183436 0.46400002 144 6 10
-0.0093570342 -0.018304067 0.46300003 146 5 10
-0.0088423854 -0.018304067 0.46300003 146 5 10
-0.0083277365 -0.018304067 0.46300003 146 5 10
-0.0077962116 -0.018264532 0.46200001 145 4 9
-0.0072826748 -0.018264532 0.46200001 146 3 9
-0.0067691375 -0.018264532 0.46200001 146 3 9
-0.0062556006 -0.018264532 0.46200001 146 3 9
-0.0057296348 -0.018224999 0.46100003 146 3 9
-0.005217209 -0.018224999 0.46100003 148 5 11
-0.0047047832 -0.018224999 0.46100003 148 5 11
-0.0041832635 -0.018185465 0.46000001 147 4 10
-0.0036719493 -0.018185465 0.46000001 148 2 7
-0.0031606352 -0.018185465 0.46000001 149 3 8
-0.0026435619 -0.018145932 0.45900002 150 3 8
-0.0021333592 -0.018145932 0.45900002 153 6 11
-0.0016231567 -0.018145932 0.45900002 156 6 12
-0.0011105294 -0.018106399 0.45800003 158 8 14
-0.00060143834 -0.018106399 0.45800003 162 9 18
-9.2347327e-05 -0.018106399 0.45800003 165 12 21
0.00041674371 -0.018106399 0.45800003 166 12 24
0.00092381326 -0.018066864 0.45700002 166 12 24
0.0014317927 -0.018066864 0.45700002 164 10 24
0.0019397723 -0.018066864 0.45700002 162 8 22
0.0024477516 -0.018066864 0.45700002 162 7 24
0.0029557312 -0.018066864 0.45700002 165 10 27
0.0034637104 -0.018066864 0.45700002 168 13 32
0.0039716898 -0.018066864 0.45700002 172 17 36
0.0044796695 -0.018066864 0.45700002 172 20 38
0.0049876492 -0.018066864 0.45700002 169 17 35
0.0054836031 -0.018027332 0.45600003 166 14 34
0.0059904708 -0.018027332 0.45600003 168 19 38
0.0064973389 -0.018027332 0.45600003 170 21 40
0.007004207 -0.018027332 0.45600003 170 21 43
0.0074946028 -0.017987797 0.45500001 169 20 42
0.0080003589 -0.017987797 0.45500001 168 19 41
0.0085061155 -0.017987797 0.45500001 168 19 41
0.0090118712 -0.017987797 0.45500001 172 26 49
0.0095176287 -0.017987797 0.45500001 176 30 53
0.020598896 -0.017948264 0.45400003 166 17 39
0.021103542 -0.017948264 0.45400003 162 13 35
0.021608187 -0.017948264 0.45400003 162 7 28
0.022112831 -0.017948264 0.45400003 161 6 27
0.022617476 -0.017948264 0.45400003 164 3 22
0.023122121 -0.017948264 0.45400003 164 3 22
0.023626765 -0.017948264 0.45400003 163 2 21
0.02413141 -0.017948264 0.45400003 163 2 21
0.024690319 -0.017987797 0.45500001 165 2 19
0.025196075 -0.017987797 0.45500001 165 2 19
0.025701832 -0.017987797 0.45500001 166 3 18
0.026207589 -0.017987797 0.45500001 165 2 17
0.026772056 -0.018027332 0.45600003 165 2 17
0.027278924 -0.018027332 0.45600003 165 2 17
0.027846726 -0.018066864 0.45700002 162 2 16
0.028354704 -0.018066864 0.45700002 162 2 16
0.028862685 -0.018066864 0.45700002 163 3 17
0.029434934 -0.018106399 0.45800003 163 3 17
0.029944025 -0.018106399 0.45800003 164 4 18
0.030453116 -0.018106399 0.45800003 165 5 19
0.030962206 -0.018106399 0.45800003 164 5 19
0.03154001 -0.018145932 0.45900002 164 5 19
0.032050215 -0.018145932 0.45900002 162 6 19
0.032560416 -0.018145932 0.45900002 162 6 19
0.033142667 -0.018185465 0.46000001 164 10 24
0.033653982 -0.018185465 0.46000001 164 10 24
0.034239568 -0.018224999 0.46100003 157 10 22
0.034751993 -0.018224999 0.46100003 156 9 21
0.035340913 -0.018264532 0.46200001 153 11 21
0.035854451 -0.018264532 0.46200001 152 10 20
0.036446709 -0.018304067 0.46300003 151 8 21
0.037041187 -0.0183436 0.46400002 151 8 21
0.037556946 -0.0183436 0.46400002 148 11 24
0.038154762 -0.018383134 0.46500003 148 11 24
0.038754798 -0.018422667 0.46600002 146 11 23
0.039272781 -0.018422667 0.46600002 146 11 23
0.039876152 -0.0184622 0.46700001 145 14 27
0.040481746 -0.018501734 0.46800002 148 17 30
0.041089561 -0.018541267 0.46900001 145 22 32
0.041610882 -0.018541267 0.46900001 148 25 35
0.042222034 -0.018580802 0.47000003 143 32 38
0.042835411 -0.018620335 0.47100002 146 35 41
0.043358952 -0.018620335 0.47100002 138 42 46
0.043975662 -0.018659869 0.47200003 139 43 47
0.044500317 -0.018659869 0.47200003 125 52 53
0.045120358 -0.018699402 0.47300002 126 53 54
0.045646124 -0.018699402 0.47300002 110 64 60
0.046171889 -0.018699402 0.47300002 113 67 63
-0.017933365 -0.018135216 0.47200003 92 15 21
-0.017408712 -0.018135216 0.47200003 101 10 19
-0.016848287 -0.018096793 0.47100002 100 9 18
-0.016324745 -0.018096793 0.47100002 109 6 17
-0.015767656 -0.018058373 0.47000003 112 9 20
-0.015245226 -0.018058373 0.47000003 118 10 20
-0.014691471 -0.01801995 0.46900001 118 10 20
-0.01413994 -0.017981527 0.46800002 124 4 16
-0.013590631 -0.017943105 0.46700001 130 5 14
-0.013043546 -0.017904684 0.46600002 130 5 14
-0.012525563 -0.017904684 0.46600002 136 4 11
-0.01200758 -0.017904684 0.46600002 136 4 11
-0.01146494 -0.017866263 0.46500003 138 4 11
-0.010924524 -0.017827839 0.46400002 139 5 12
-0.010408764 -0.017827839 0.46400002 142 4 8
-0.0098930029 -0.017827839 0.46400002 142 4 8
-0.0093570342 -0.017789418 0.46300003 143 5 9
-0.0088423854 -0.017789418 0.46300003 143 5 9
-0.0083277365 -0.017789418 0.46300003 145 4 9
-0.0078130867 -0.017789418 0.46300003 145 4 9
-0.0072826748 -0.017750995 0.46200001 145 4 9
-0.0067691375 -0.017750995 0.46200001 145 4 9
-0.0062556006 -0.017750995 0.46200001 146 3 9
-0.0057296348 -0.017712574 0.46100003 146 3 9
-0.005217209 -0.017712574 0.46100003 146 3 9
-0.0047047832 -0.017712574 0.46100003 146 3 9
-0.0041832635 -0.017674152 0.46000001 146 3 9
-0.0036719493 -0.017674152 0.46000001 146 3 7
-0.0031606352 -0.017674152 0.46000001 147 4 8
-0.0026435619 -0.017635729 0.45900002 150 3 8
-0.0021333592 -0.017635729 0.45900002 153 6 11
-0.0016231567 -0.017635729 0.45900002 156 6 12
-0.0011105294 -0.017597308 0.45800003 158 8 14
-0.00060143834 -0.017597308 0.45800003 160 10 18
-9.2347327e-05 -0.017597308 0.45800003 163 13 21
0.00041674371 -0.017597308 0.45800003 166 13 22
0.00092381326 -0.017558886 0.45700002 165 12 21
0.0014317927 -0.017558886 0.45700002 160 6 20
0.0019397723 -0.017558886 0.45700002 160 6 20
0.0024477516 -0.017558886 0.45700002 162 8 22
0.0029557312 -0.017558886 0.45700002 165 11 25
0.0034637104 -0.017558886 0.45700002 164 9 26
0.0039716898 -0.017558886 0.45700002 160 5 22
0.0044796695 -0.017558886 0.45700002 164 9 26
0.0049876492 -0.017558886 0.45700002 166 11 28
0.0054836031 -0.017520463 0.45600003 166 14 34
0.0059904708 -0.017520463 0.45600003 167 17 39
0.0064973389 -0.017520463 0.45600003 169 19 41
0.007004207 -0.017520463 0.45600003 169 19 41
0.0074946028 -0.01748204 0.45500001 169 19 41
0.0080003589 -0.01748204 0.45500001 168 18 40
0.0085061155 -0.01748204 0.45500001 170 20 42
0.0090118712 -0.01748204 0.45500001 173 24 48
0.0095176287 -0.01748204 0.45500001 173 24 48
0.016057093 -0.01744362 0.45400003 169 56 74
0.016561737 -0.01744362 0.45400003 169 56 74
0.020598896 -0.01744362 0.45400003 159 10 32
0.021103542 -0.01744362 0.45400003 155 6 28
0.021608187 -0.01744362 0.45400003 162 5 25
0.022112831 -0.01744362 0.45400003 162 5 25
0.022617476 -0.01744362 0.45400003 164 4 20
0.023122121 -0.01744362 0.45400003 163 3 19
0.023626765 -0.01744362 0.45400003 163 3 19
0.024184562 -0.01748204 0.45500001 163 3 19
0.024690319 -0.01748204 0.45500001 163 3 19
0.025196075 -0.01748204 0.45500001 163 3 19
0.025701832 -0.01748204 0.45500001 162 2 16
0.026207589 -0.01748204 0.45500001 162 2 16
0.026772056 -0.017520463 0.45600003 162 2 16
0.027278924 -0.017520463 0.45600003 163 3 17
0.027785791 -0.017520463 0.45600003 163 3 17
0.028354704 -0.017558886 0.45700002 163 3 17
0.028862685 -0.017558886 0.45700002 162 2 16
0.029370664 -0.017558886 0.45700002 162 2 16
0.029944025 -0.017597308 0.45800003 162 2 16
0.030453116 -0.017597308 0.45800003 164 4 18
0.030962206 -0.017597308 0.45800003 164 5 19
0.03154001 -0.017635729 0.45900002 165 6 20
0.032050215 -0.017635729 0.45900002 162 6 19
0.032560416 -0.017635729 0.45900002 163 7 20
0.033142667 -0.017674152 0.46000001 164 13 26
0.033653982 -0.017674152 0.46000001 162 11 24
0.034239568 -0.017712574 0.46100003 157 10 22
0.034751993 -0.017712574 0.46100003 155 8 20
0.035340913 -0.017750995 0.46200001 152 10 20
0.035854451 -0.017750995 0.46200001 152 10 20
0.036446709 -0.017789418 0.46300003 152 9 22
0.037041187 -0.017827839 0.46400002 153 10 23
0.037556946 -0.017827839 0.46400002 147 10 23
0.038154762 -0.017866263 0.46500003 147 10 23
0.038754798 -0.017904684 0.46600002 146 11 23
0.039272781 -0.017904684 0.46600002 146 11 23
0.039876152 -0.017943105 0.46700001 144 13 26
0.040481746 -0.017981527 0.46800002 148 17 30
0.041001953 -0.017981527 0.46800002 146 23 33
0.041610882 -0.01801995 0.46900001 148 25 35
0.042222034 -0.018058373 0.47000003 143 32 38
0.042835411 -0.018096793 0.47100002 145 34 40
0.043358952 -0.018096793 0.47100002 137 40 44
0.043975662 -0.018135216 0.47200003 139 42 46
0.044500317 -0.018135216 0.47200003 122 49 50
0.045120358 -0.018173639 0.47300002 123 50 51
0.045646124 -0.018173639 0.47300002 112 65 64
0.046171889 -0.018173639 0.47300002 114 67 66
0.046697654 -0.018173639 0.47300002 101 73 70
-0.017971359 -0.017647874 0.47300002 93 16 22
-0.017408712 -0.017610565 0.47200003 101 10 19
-0.016884059 -0.017610565 0.47200003 101 10 19
-0.016324745 -0.017573252 0.47100002 109 8 18
-0.015245226 -0.017535944 0.47000003 118 10 20
-0.014691471 -0.017498631 0.46900001 119 11 21
-0.01413994 -0.017461322 0.46800002 124 8 16
-0.013590631 -0.01742401 0.46700001 130 5 14
-0.013043546 -0.017386701 0.46600002 130 5 14
-0.012525563 -0.017386701 0.46600002 135 4 13
-0.011981813 -0.01734939 0.46500003 135 4 13
-0.01146494 -0.01734939 0.46500003 138 4 11
-0.010924524 -0.01731208 0.46400002 138 4 11
-0.010408764 -0.01731208 0.46400002 142 3 10
-0.0098930029 -0.01731208 0.46400002 142 3 10
-0.0093570342 -0.017274769 0.46300003 142 3 10
-0.0088423854 -0.017274769 0.46300003 143 4 11
-0.0083277365 -0.017274769 0.46300003 145 3 11
-0.0078130867 -0.017274769 0.46300003 146 4 12
-0.0072826748 -0.017237458 0.46200001 146 4 12
-0.0067691375 -0.017237458 0.46200001 146 4 12
-0.0062556006 -0.017237458 0.46200001 146 4 12
-0.0057296348 -0.017200148 0.46100003 147 5 13
-0.005217209 -0.017200148 0.46100003 146 5 10
-0.0047047832 -0.017200148 0.46100003 146 3 9
-0.0041832635 -0.017162837 0.46000001 146 3 9
-0.0036719493 -0.017162837 0.46000001 146 3 9
-0.0031537644 -0.017125526 0.45900002 147 4 10
-0.0026435619 -0.017125526 0.45900002 153 6 11
-0.0021333592 -0.017125526 0.45900002 154 7 12
-0.0016231567 -0.017125526 0.45900002 155 8 13
-0.0011105294 -0.017088218 0.45800003 156 9 14
-0.00060143834 -0.017088218 0.45800003 159 9 15
-9.2347327e-05 -0.017088218 0.45800003 160 10 16
0.00041583378 -0.017050905 0.45700002 160 10 18
0.00092381326 -0.017050905 0.45700002 160 10 18
0.0014317927 -0.017050905 0.45700002 160 9 20
0.0019397723 -0.017050905 0.45700002 160 9 20
0.0024477516 -0.017050905 0.45700002 163 12 25
0.0029557312 -0.017050905 0.45700002 163 12 25
0.0034637104 -0.017050905 0.45700002 162 10 26
0.0039716898 -0.017050905 0.45700002 159 7 23
0.0044796695 -0.017050905 0.45700002 161 6 25
0.0049876492 -0.017050905 0.45700002 165 10 29
0.0054836031 -0.017013596 0.45600003 166 14 34
0.0059904708 -0.017013596 0.45600003 167 15 35
0.0064973389 -0.017013596 0.45600003 169 17 37
0.0069888467 -0.016976284 0.45500001 168 18 40
0.0074946028 -0.016976284 0.45500001 168 18 40
0.0080003589 -0.016976284 0.45500001 168 18 40
0.0085061155 -0.016976284 0.45500001 168 18 40
0.0090118712 -0.016976284 0.45500001 169 19 41
0.0095176287 -0.016976284 0.45500001 171 21 43
0.010023385 -0.016976284 0.45500001 171 25 48
0.010529141 -0.016976284 0.45500001 172 26 49
0.016057093 -0.016938975 0.45400003 176 55 74
0.016561737 -0.016938975 0.45400003 171 50 69
0.01702879 -0.016901663 0.45300001 162 44 62
0.017532324 -0.016901663 0.45300001 156 38 56
0.020598896 -0.016938975 0.45400003 153 5 24
0.021103542 -0.016938975 0.45400003 152 4 23
0.021608187 -0.016938975 0.45400003 158 6 24
0.022112831 -0.016938975 0.45400003 158 6 24
0.022617476 -0.016938975 0.45400003 162 2 21
0.023122121 -0.016938975 0.45400003 162 2 21
0.023626765 -0.016938975 0.45400003 163 3 19
0.024184562 -0.016976284 0.45500001 162 2 18
0.024690319 -0.016976284 0.45500001 162 2 18
0.025196075 -0.016976284 0.45500001 162 2 18
0.025701832 -0.016976284 0.45500001 162 2 16
0.026207589 -0.016976284 0.45500001 162 2 16
0.026772056 -0.017013596 0.45600003 161 1 15
0.027278924 -0.017013596 0.45600003 162 2 16
0.027785791 -0.017013596 0.45600003 162 2 16
0.028354704 -0.017050905 0.45700002 163 3 17
0.028862685 -0.017050905 0.45700002 163 3 17
0.029370664 -0.017050905 0.45700002 163 3 17
0.029944025 -0.017088218 0.45800003 162 3 17
0.030453116 -0.017088218 0.45800003 164 5 19
0.030962206 -0.017088218 0.45800003 167 11 24
0.03154001 -0.017125526 0.45900002 172 16 29
0.032050215 -0.017125526 0.45900002 166 12 26
0.032560416 -0.017125526 0.45900002 165 11 25
0.033142667 -0.017162837 0.46000001 162 11 24
0.033653982 -0.017162837 0.46000001 159 8 21
0.034239568 -0.017200148 0.46100003 156 8 20
0.034751993 -0.017200148 0.46100003 155 7 19
0.035340913 -0.017237458 0.46200001 153 9 20
0.03593206 -0.017274769 0.46300003 154 10 21
0.036446709 -0.017274769 0.46300003 156 13 26
0.037041187 -0.01731208 0.46400002 156 13 26
0.037556946 -0.01731208 0.46400002 149 12 23
0.038154762 -0.01734939 0.46500003 148 11 22
0.038754798 -0.017386701 0.46600002 147 12 24
0.039272781 -0.017386701 0.46600002 149 14 26
0.039876152 -0.01742401 0.46700001 146 15 26
0.040395245 -0.01742401 0.46700001 146 15 26
0.041001953 -0.017461322 0.46800002 145 22 32
0.041610882 -0.017498631 0.46900001 147 24 34
0.042222034 -0.017535944 0.47000003 142 31 37
0.042744465 -0.017535944 0.47000003 143 32 38
0.043358952 -0.017573252 0.47100002 135 38 42
0.043882493 -0.017573252 0.47100002 137 40 44
0.044500317 -0.017610565 0.47200003 119 46 47
0.045024969 -0.017610565 0.47200003 119 46 47
0.045646124 -0.017647874 0.47300002 116 69 70
-0.017971359 -0.01712211 0.47300002 92 15 21
-0.017445594 -0.01712211 0.47300002 100 9 18
-0.016884059 -0.017085912 0.47200003 101 10 19
-0.016359406 -0.017085912 0.47200003 109 8 18
-0.015801204 -0.017049711 0.47100002 110 9 19
-0.014691471 -0.016977314 0.46900001 118 10 20
-0.01413994 -0.016941115 0.46800002 124 8 16
-0.013590631 -0.016904917 0.46700001 129 6 14
-0.013071536 -0.016904917 0.46700001 129 6 14
-0.012525563 -0.016868718 0.46600002 135 4 13
-0.011981813 -0.016832519 0.46500003 135 4 13
-0.01146494 -0.016832519 0.46500003 136 4 11
-0.010924524 -0.016796319 0.46400002 136 4 11
-0.010408764 -0.016796319 0.46400002 139 3 9
-0.0098930029 -0.016796319 0.46400002 140 4 10
-0.0093570342 -0.01676012 0.46300003 142 3 10
-0.0088423854 -0.01676012 0.46300003 143 4 11
-0.0083277365 -0.01676012 0.46300003 143 4 11
-0.0078130867 -0.01676012 0.46300003 145 6 13
-0.0072826748 -0.016723922 0.46200001 147 8 15
-0.0067691375 -0.016723922 0.46200001 147 8 15
-0.0062556006 -0.016723922 0.46200001 145 6 13
-0.0057296348 -0.016687723 0.46100003 144 5 12
-0.005217209 -0.016687723 0.46100003 146 4 12
-0.0047047832 -0.016687723 0.46100003 145 4 9
-0.0041832635 -0.016651522 0.46000001 145 4 9
-0.0036719493 -0.016651522 0.46000001 145 4 9
-0.0031537644 -0.016615324 0.45900002 146 5 10
-0.0026435619 -0.016615324 0.45900002 154 8 13
-0.0021333592 -0.016615324 0.45900002 154 8 13
-0.0016196204 -0.016579127 0.45800003 156 9 14
-0.0011105294 -0.016579127 0.45800003 155 8 13
-0.00060143834 -0.016579127 0.45800003 155 8 13
-9.2347327e-05 -0.016579127 0.45800003 156 9 14
0.00041583378 -0.016542926 0.45700002 157 7 13
0.00092381326 -0.016542926 0.45700002 158 8 14
0.0014317927 -0.016542926 0.45700002 159 8 19
0.0019397723 -0.016542926 0.45700002 162 11 22
0.0024477516 -0.016542926 0.45700002 163 12 23
0.0029557312 -0.016542926 0.45700002 163 12 23
0.0034637104 -0.016542926 0.45700002 162 11 24
0.0039716898 -0.016542926 0.45700002 160 9 22
0.0044796695 -0.016542926 0.45700002 159 7 23
0.0049767355 -0.016506728 0.45600003 162 10 26
0.0054836031 -0.016506728 0.45600003 166 14 34
0.0059904708 -0.016506728 0.45600003 167 15 35
0.0064973389 -0.016506728 0.45600003 169 17 37
0.0069888467 -0.016470529 0.45500001 170 18 38
0.0074946028 -0.016470529 0.45500001 171 19 39
0.0080003589 -0.016470529 0.45500001 169 20 39
0.0085061155 -0.016470529 0.45500001 168 19 38
0.0090118712 -0.016470529 0.45500001 168 19 38
0.0095176287 -0.016470529 0.45500001 170 21 40
0.010023385 -0.016470529 0.45500001 170 21 43
0.010529141 -0.016470529 0.45500001 176 27 49
0.016057093 -0.01643433 0.45400003 168 43 61
0.016561737 -0.01643433 0.45400003 168 43 61
0.017066382 -0.01643433 0.45400003 165 42 62
0.017532324 -0.01639813 0.45300001 164 41 61
0.018035859 -0.01639813 0.45300001 155 28 49
0.018580317 -0.01643433 0.45400003 155 28 49
0.020598896 -0.01643433 0.45400003 167 22 40
0.021103542 -0.01643433 0.45400003 165 20 38
0.021608187 -0.01643433 0.45400003 161 12 27
0.022112831 -0.01643433 0.45400003 156 7 22
0.022617476 -0.01643433 0.45400003 160 4 19
0.023122121 -0.01643433 0.45400003 160 4 19
0.023626765 -0.01643433 0.45400003 159 3 18
0.024184562 -0.016470529 0.45500001 159 3 18
0.024690319 -0.016470529 0.45500001 161 2 18
0.025196075 -0.016470529 0.45500001 161 2 18
0.025701832 -0.016470529 0.45500001 161 2 18
0.026207589 -0.016470529 0.45500001 161 2 18
0.026772056 -0.016506728 0.45600003 162 3 17
0.027278924 -0.016506728 0.45600003 161 2 16
0.027785791 -0.016506728 0.45600003 160 1 15
0.028354704 -0.016542926 0.45700002 160 1 15
0.028862685 -0.016542926 0.45700002 160 1 15
0.029370664 -0.016542926 0.45700002 161 2 16
0.029944025 -0.016579127 0.45800003 162 3 17
0.030453116 -0.016579127 0.45800003 163 4 18
0.030962206 -0.016579127 0.45800003 163 7 20
0.03154001 -0.016615324 0.45900002 165 9 22
0.032050215 -0.016615324 0.45900002 164 10 24
0.032560416 -0.016615324 0.45900002 162 8 22
0.033142667 -0.016651522 0.46000001 157 9 21
0.033727143 -0.016687723 0.46100003 155 7 19
0.034239568 -0.016687723 0.46100003 154 6 18
0.034827378 -0.016723922 0.46200001 155 7 19
0.035340913 -0.016723922 0.46200001 153 8 22
0.03593206 -0.01676012 0.46300003 154 9 23
0.036446709 -0.01676012 0.46300003 152 12 24
0.037041187 -0.016796319 0.46400002 151 11 23
0.037556946 -0.016796319 0.46400002 149 12 23
0.038154762 -0.016832519 0.46500003 148 11 22
0.038754798 -0.016868718 0.46600002 147 12 24
0.039272781 -0.016868718 0.46600002 149 14 26
0.039876152 -0.016904917 0.46700001 148 17 28
0.040395245 -0.016904917 0.46700001 148 17 28
0.041001953 -0.016941115 0.46800002 144 21 29
0.041610882 -0.016977314 0.46900001 147 24 32
0.042132199 -0.016977314 0.46900001 138 29 35
0.042744465 -0.017013513 0.47000003 141 32 38
0.043358952 -0.017049711 0.47100002 133 37 41
0.043882493 -0.017049711 0.47100002 134 38 42
0.044500317 -0.017085912 0.47200003 115 42 47
0.045024969 -0.017085912 0.47200003 124 51 56
0.045646124 -0.01712211 0.47300002 112 68 68
0.046796381 -0.017158309 0.47400004 106 75 77
-0.018009353 -0.016631434 0.47400004 92 15 21
-0.017445594 -0.016596345 0.47300002 100 11 19
-0.016919829 -0.016596345 0.47300002 101 12 20
-0.016359406 -0.016561259 0.47200003 109 8 18
-0.015801204 -0.01652617 0.47100002 109 8 18
-0.014722797 -0.016491083 0.47000003 115 7 17
-0.014170153 -0.016455997 0.46900001 120 7 14
-0.013619734 -0.016420908 0.46800002 129 6 14
-0.013071536 -0.016385822 0.46700001 129 6 14
-0.012525563 -0.016350733 0.46600002 135 4 13
-0.01200758 -0.016350733 0.46600002 135 4 13
-0.01146494 -0.016315646 0.46500003 136 4 11
-0.010924524 -0.01628056 0.46400002 136 4 11
-0.010408764 -0.01628056 0.46400002 139 3 11
-0.0098930029 -0.01628056 0.46400002 139 3 11
-0.0093570342 -0.016245471 0.46300003 140 4 10
-0.0088423854 -0.016245471 0.46300003 140 4 10
-0.0083277365 -0.016245471 0.46300003 143 4 11
-0.0078130867 -0.016245471 0.46300003 144 5 12
-0.0072826748 -0.016210385 0.46200001 144 5 12
-0.0067691375 -0.016210385 0.46200001 143 4 11
-0.0062556006 -0.016210385 0.46200001 145 3 11
-0.0057296348 -0.016175296 0.46100003 145 3 11
-0.005217209 -0.016175296 0.46100003 144 2 10
-0.0046945778 -0.01614021 0.46000001 145 3 11
-0.0041832635 -0.01614021 0.46000001 145 3 11
-0.0036719493 -0.01614021 0.46000001 145 4 9
-0.0031537644 -0.016105123 0.45900002 146 5 10
-0.0026435619 -0.016105123 0.45900002 148 5 11
-0.0021333592 -0.016105123 0.45900002 151 8 14
-0.0016196204 -0.016070034 0.45800003 154 8 13
-0.0011105294 -0.016070034 0.45800003 154 8 13
-0.00060143834 -0.016070034 0.45800003 154 7 12
-9.2347327e-05 -0.016070034 0.45800003 154 7 12
0.00041583378 -0.016034948 0.45700002 157 7 13
0.00092381326 -0.016034948 0.45700002 158 8 14
0.0014317927 -0.016034948 0.45700002 159 9 17
0.0019397723 -0.016034948 0.45700002 160 10 18
0.0024477516 -0.016034948 0.45700002 162 12 20
0.0029557312 -0.016034948 0.45700002 163 13 21
0.0034637104 -0.016034948 0.45700002 163 12 23
0.0039716898 -0.016034948 0.45700002 162 11 22
0.0044796695 -0.016034948 0.45700002 162 10 26
0.0049767355 -0.015999861 0.45600003 163 11 27
0.0054836031 -0.015999861 0.45600003 164 12 32
0.0059904708 -0.015999861 0.45600003 165 13 33
0.0064973389 -0.015999861 0.45600003 164 12 32
0.007004207 -0.015999861 0.45600003 167 15 35
0.0075110747 -0.015999861 0.45600003 174 22 42
0.0080003589 -0.015964773 0.45500001 173 21 41
0.0085061155 -0.015964773 0.45500001 171 19 39
0.0090118712 -0.015964773 0.45500001 170 18 38
0.0095176287 -0.015964773 0.45500001 170 18 38
0.010023385 -0.015964773 0.45500001 167 18 40
0.010529141 -0.015964773 0.45500001 169 20 42
0.011034898 -0.015964773 0.45500001 171 25 48
0.011540653 -0.015964773 0.45500001 174 28 51
0.013029225 -0.015929686 0.45400003 170 31 54
0.01353387 -0.015929686 0.45400003 174 35 58
0.015047804 -0.015929686 0.45400003 163 30 51
0.015552448 -0.015929686 0.45400003 167 34 55
0.016057093 -0.015929686 0.45400003 166 39 58
0.016561737 -0.015929686 0.45400003 167 40 59
0.017066382 -0.015929686 0.45400003 167 40 59
0.017532324 -0.015894597 0.45300001 167 40 59
0.018075673 -0.015929686 0.45400003 166 33 54
0.018580317 -0.015929686 0.45400003 162 29 50
0.019084962 -0.015929686 0.45400003 160 23 45
0.019546458 -0.015894597 0.45300001 163 22 43
0.020094251 -0.015929686 0.45400003 164 23 44
0.020598896 -0.015929686 0.45400003 166 21 39
0.021103542 -0.015929686 0.45400003 164 19 37
0.021608187 -0.015929686 0.45400003 166 14 32
0.022112831 -0.015929686 0.45400003 159 7 25
0.022617476 -0.015929686 0.45400003 159 4 21
0.023122121 -0.015929686 0.45400003 158 3 20
0.023626765 -0.015929686 0.45400003 159 3 18
0.024184562 -0.015964773 0.45500001 159 3 18
0.024690319 -0.015964773 0.45500001 158 2 17
0.025196075 -0.015964773 0.45500001 158 2 17
0.025701832 -0.015964773 0.45500001 158 2 17
0.026207589 -0.015964773 0.45500001 159 3 18
0.026772056 -0.015999861 0.45600003 159 3 18
0.027278924 -0.015999861 0.45600003 158 2 17
0.027785791 -0.015999861 0.45600003 158 2 17
0.028354704 -0.016034948 0.45700002 158 2 17
0.028862685 -0.016034948 0.45700002 158 2 15
0.029370664 -0.016034948 0.45700002 158 2 15
0.029944025 -0.016070034 0.45800003 158 2 15
0.030453116 -0.016070034 0.45800003 159 3 16
0.031029809 -0.016105123 0.45900002 159 5 17
0.03154001 -0.016105123 0.45900002 161 7 19
0.032050215 -0.016105123 0.45900002 161 7 21
0.032631353 -0.01614021 0.46000001 160 6 20
0.033142667 -0.01614021 0.46000001 154 6 18
0.033727143 -0.016175296 0.46100003 154 6 18
0.034239568 -0.016175296 0.46100003 154 6 21
0.034827378 -0.016210385 0.46200001 157 9 24
0.035340913 -0.016210385 0.46200001 153 10 23
0.03593206 -0.016245471 0.46300003 152 9 22
0.036446709 -0.016245471 0.46300003 149 9 21
0.037041187 -0.01628056 0.46400002 146 9 20
0.037556946 -0.01628056 0.46400002 146 11 23
0.038154762 -0.016315646 0.46500003 149 14 26
0.038754798 -0.016350733 0.46600002 147 14 26
0.039272781 -0.016350733 0.46600002 147 14 26
0.039876152 -0.016385822 0.46700001 142 17 26
0.040395245 -0.016385822 0.46700001 145 20 29
0.041001953 -0.016420908 0.46800002 143 24 31
0.041610882 -0.016455997 0.46900001 144 25 32
0.042132199 -0.016455997 0.46900001 138 29 35
0.042744465 -0.016491083 0.47000003 140 31 37
0.043358952 -0.01652617 0.47100002 132 39 42
0.043882493 -0.01652617 0.47100002 132 39 42
0.044500317 -0.016561259 0.47200003 126 56 60
0.045024969 -0.016561259 0.47200003 136 66 70
-0.018009353 -0.016104558 0.47400004 92 15 21
-0.016919829 -0.016070582 0.47300002 98 12 19
-0.016359406 -0.016036605 0.47200003 106 9 15
-0.015834752 -0.016036605 0.47200003 107 10 16
-0.014722797 -0.015968654 0.47000003 114 9 18
-0.014170153 -0.015934678 0.46900001 120 7 14
-0.013619734 -0.015900703 0.46800002 127 6 14
-0.013071536 -0.015866727 0.46700001 127 6 14
-0.012525563 -0.01583275 0.46600002 132 4 12
-0.01200758 -0.01583275 0.46600002 133 5 13
-0.01146494 -0.015798775 0.46500003 135 4 13
-0.010924524 -0.015764799 0.46400002 136 5 14
-0.010408764 -0.015764799 0.46400002 137 5 12
-0.0098930029 -0.015764799 0.46400002 136 4 11
-0.0093570342 -0.015730822 0.46300003 139 5 12
-0.0088423854 -0.015730822 0.46300003 139 5 12
-0.0083277365 -0.015730822 0.46300003 140 4 10
-0.0078130867 -0.015730822 0.46300003 140 4 10
-0.0072826748 -0.015696848 0.46200001 142 3 10
-0.0067691375 -0.015696848 0.46200001 142 3 10
-0.0062420606 -0.015662871 0.46100003 142 3 10
-0.0057296348 -0.015662871 0.46100003 141 2 9
-0.005217209 -0.015662871 0.46100003 142 3 10
-0.0046945778 -0.015628895 0.46000001 144 5 12
-0.0041832635 -0.015628895 0.46000001 143 4 11
-0.0036639667 -0.015594919 0.45900002 145 3 11
-0.0031537644 -0.015594919 0.45900002 145 3 11
-0.0026435619 -0.015594919 0.45900002 147 4 10
-0.0021333592 -0.015594919 0.45900002 148 5 11
-0.0016196204 -0.015560945 0.45800003 152 6 13
-0.0011105294 -0.015560945 0.45800003 153 7 14
-0.00060143834 -0.015560945 0.45800003 154 7 12
-9.2347327e-05 -0.015560945 0.45800003 155 8 13
0.00041583378 -0.015526968 0.45700002 154 7 12
0.00092381326 -0.015526968 0.45700002 155 8 13
0.0014317927 -0.015526968 0.45700002 158 8 16
0.0019397723 -0.015526968 0.45700002 159 9 17
0.0024477516 -0.015526968 0.45700002 160 10 18
0.0029557312 -0.015526968 0.45700002 162 12 20
0.0034637104 -0.015526968 0.45700002 163 12 23
0.0039716898 -0.015526968 0.45700002 160 9 20
0.0044796695 -0.015526968 0.45700002 160 9 22
0.0049767355 -0.015492992 0.45600003 160 9 22
0.0054836031 -0.015492992 0.45600003 164 12 32
0.0059904708 -0.015492992 0.45600003 163 11 31
0.0064973389 -0.015492992 0.45600003 163 11 31
0.007004207 -0.015492992 0.45600003 163 11 31
0.0075110747 -0.015492992 0.45600003 171 19 39
0.0080179423 -0.015492992 0.45600003 172 20 40
0.0085061155 -0.015459016 0.45500001 166 14 34
0.0090118712 -0.015459016 0.45500001 165 13 33
0.0095176287 -0.015459016 0.45500001 166 14 34
0.010023385 -0.015459016 0.45500001 163 14 33
0.010529141 -0.015459016 0.45500001 168 19 38
0.011034898 -0.015459016 0.45500001 168 22 43
0.011540653 -0.015459016 0.45500001 169 23 44
0.01204641 -0.015459016 0.45500001 167 23 43
0.012552167 -0.015459016 0.45500001 160 16 36
0.013029225 -0.01542504 0.45400003 163 24 47
0.01353387 -0.01542504 0.45400003 170 31 54
0.014038514 -0.01542504 0.45400003 169 30 53
0.014543159 -0.01542504 0.45400003 169 30 53
0.015047804 -0.01542504 0.45400003 167 32 54
0.015552448 -0.01542504 0.45400003 168 33 55
0.016057093 -0.01542504 0.45400003 169 35 54
0.016561737 -0.01542504 0.45400003 172 38 57
0.017066382 -0.01542504 0.45400003 168 36 54
0.017571028 -0.01542504 0.45400003 164 32 50
0.018075673 -0.01542504 0.45400003 159 24 46
0.018539391 -0.015391064 0.45300001 161 23 43
0.019084962 -0.01542504 0.45400003 161 23 43
0.019589607 -0.01542504 0.45400003 161 20 41
0.020094251 -0.01542504 0.45400003 159 18 39
0.020598896 -0.01542504 0.45400003 159 11 30
0.021103542 -0.01542504 0.45400003 159 11 30
0.021608187 -0.01542504 0.45400003 160 8 24
0.022112831 -0.01542504 0.45400003 158 6 22
0.022617476 -0.01542504 0.45400003 158 3 20
0.023122121 -0.01542504 0.45400003 158 3 20
0.023626765 -0.01542504 0.45400003 159 3 18
0.024184562 -0.015459016 0.45500001 158 2 17
0.024690319 -0.015459016 0.45500001 158 2 17
0.025196075 -0.015459016 0.45500001 158 2 17
0.025701832 -0.015459016 0.45500001 158 2 17
0.026207589 -0.015459016 0.45500001 158 2 17
0.026772056 -0.015492992 0.45600003 158 2 17
0.027278924 -0.015492992 0.45600003 158 2 17
0.027785791 -0.015492992 0.45600003 158 2 17
0.028354704 -0.015526968 0.45700002 158 2 17
0.028862685 -0.015526968 0.45700002 158 4 16
0.029370664 -0.015526968 0.45700002 157 3 15
0.029944025 -0.015560945 0.45800003 157 3 15
0.030453116 -0.015560945 0.45800003 157 3 15
0.031029809 -0.015594919 0.45900002 156 5 18
0.03154001 -0.015594919 0.45900002 158 7 20
0.032050215 -0.015594919 0.45900002 156 8 20
0.032631353 -0.015628895 0.46000001 156 8 20
0.033142667 -0.015628895 0.46000001 155 8 20
0.033727143 -0.015662871 0.46100003 155 8 20
0.034239568 -0.015662871 0.46100003 154 9 23
0.034827378 -0.015696848 0.46200001 154 9 23
0.035340913 -0.015696848 0.46200001 151 11 23
0.03593206 -0.015730822 0.46300003 150 10 22
0.036446709 -0.015730822 0.46300003 147 10 21
0.037041187 -0.015764799 0.46400002 147 10 21
0.037556946 -0.015764799 0.46400002 147 12 24
0.038154762 -0.015798775 0.46500003 148 13 25
0.038754798 -0.01583275 0.46600002 145 14 25
0.039272781 -0.01583275 0.46600002 146 15 26
0.039876152 -0.015866727 0.46700001 143 20 28
0.040395245 -0.015866727 0.46700001 144 21 29
0.041001953 -0.015900703 0.46800002 143 24 31
0.041610882 -0.015934678 0.46900001 145 26 33
0.042132199 -0.015934678 0.46900001 140 33 38
0.042744465 -0.015968654 0.47000003 144 37 42
0.043266896 -0.015968654 0.47000003 134 44 48
0.043882493 -0.016002629 0.47100002 136 46 50
0.044406034 -0.016002629 0.47100002 120 53 56
0.045024969 -0.016036605 0.47200003 123 56 59
-0.020244179 -0.015676275 0.47700003 78 30 36
-0.018009353 -0.015577682 0.47400004 95 21 26
-0.017482478 -0.015577682 0.47400004 101 15 22
-0.016919829 -0.015544818 0.47300002 100 14 21
-0.016359406 -0.015511953 0.47200003 106 9 18
-0.015834752 -0.015511953 0.47200003 106 9 18
-0.015277662 -0.015479089 0.47100002 113 8 17
-0.014722797 -0.015446225 0.47000003 114 9 18
-0.014170153 -0.01541336 0.46900001 121 9 18
-0.013619734 -0.015380496 0.46800002 127 6 16
-0.013071536 -0.015347632 0.46700001 127 6 16
-0.012525563 -0.015314767 0.46600002 130 5 14
-0.01200758 -0.015314767 0.46600002 130 5 14
-0.01146494 -0.015281904 0.46500003 133 5 13
-0.010924524 -0.015249039 0.46400002 134 6 14
-0.010408764 -0.015249039 0.46400002 136 6 12
-0.0098930029 -0.015249039 0.46400002 135 5 11
-0.0093570342 -0.015216175 0.46300003 136 4 11
-0.0088423854 -0.015216175 0.46300003 137 5 12
-0.0083277365 -0.015216175 0.46300003 140 4 12
-0.0077962116 -0.01518331 0.46200001 140 4 12
-0.0072826748 -0.01518331 0.46200001 140 4 12
-0.0067691375 -0.01518331 0.46200001 140 4 12
-0.0062420606 -0.015150446 0.46100003 140 4 10
-0.0057296348 -0.015150446 0.46100003 140 4 10
-0.0052058916 -0.015117581 0.46000001 142 3 10
-0.0046945778 -0.015117581 0.46000001 143 4 11
-0.0041832635 -0.015117581 0.46000001 142 3 10
-0.0036639667 -0.015084717 0.45900002 142 3 10
-0.0031537644 -0.015084717 0.45900002 142 3 10
-0.0026435619 -0.015084717 0.45900002 145 4 9
-0.0021333592 -0.015084717 0.45900002 146 5 10
-0.0016196204 -0.015051853 0.45800003 150 4 11
-0.0011105294 -0.015051853 0.45800003 152 6 13
-0.00060143834 -0.015051853 0.45800003 153 6 13
-9.2347327e-05 -0.015051853 0.45800003 154 7 14
0.00041583378 -0.015018988 0.45700002 155 5 11
0.00092381326 -0.015018988 0.45700002 156 6 12
0.0014317927 -0.015018988 0.45700002 157 7 13
0.0019397723 -0.015018988 0.45700002 158 8 14
0.0024477516 -0.015018988 0.45700002 159 9 15
0.0029557312 -0.015018988 0.45700002 159 9 15
0.0034637104 -0.015018988 0.45700002 162 9 18
0.0039716898 -0.015018988 0.45700002 162 9 18
0.0044698673 -0.014986125 0.45600003 161 7 21
0.0049767355 -0.014986125 0.45600003 161 7 21
0.0054836031 -0.014986125 0.45600003 165 10 29
0.0059904708 -0.014986125 0.45600003 164 9 30
0.0064973389 -0.014986125 0.45600003 164 9 30
0.007004207 -0.014986125 0.45600003 164 9 30
0.0075110747 -0.014986125 0.45600003 165 10 31
0.0080179423 -0.014986125 0.45600003 167 12 33
0.00852481 -0.014986125 0.45600003 167 12 33
0.0090118712 -0.014953259 0.45500001 166 11 32
0.0095176287 -0.014953259 0.45500001 166 11 32
0.010023385 -0.014953259 0.45500001 167 15 35
0.010529141 -0.014953259 0.45500001 172 20 40
0.011034898 -0.014953259 0.45500001 171 23 42
0.011540653 -0.014953259 0.45500001 173 25 44
0.01204641 -0.014953259 0.45500001 172 26 47
0.012552167 -0.014953259 0.45500001 179 33 54
0.013029225 -0.014920396 0.45400003 181 40 61
0.01353387 -0.014920396 0.45400003 176 35 56
0.014038514 -0.014920396 0.45400003 171 33 53
0.014543159 -0.014920396 0.45400003 170 32 52
0.015047804 -0.014920396 0.45400003 168 32 51
0.015552448 -0.014920396 0.45400003 165 29 48
0.016057093 -0.014920396 0.45400003 159 25 44
0.016561737 -0.014920396 0.45400003 165 31 50
0.017066382 -0.014920396 0.45400003 166 32 51
0.017571028 -0.014920396 0.45400003 165 31 50
0.018075673 -0.014920396 0.45400003 159 23 42
0.018580317 -0.014920396 0.45400003 160 24 43
0.019084962 -0.014920396 0.45400003 159 18 39
0.019589607 -0.014920396 0.45400003 160 14 35
0.020094251 -0.014920396 0.45400003 158 12 33
0.020598896 -0.014920396 0.45400003 160 11 30
0.021103542 -0.014920396 0.45400003 157 8 27
0.021608187 -0.014920396 0.45400003 158 6 24
0.022112831 -0.014920396 0.45400003 156 4 22
0.022617476 -0.014920396 0.45400003 158 3 20
0.023122121 -0.014920396 0.45400003 157 2 19
0.023678806 -0.014953259 0.45500001 157 3 17
0.024184562 -0.014953259 0.45500001 157 3 17
0.024690319 -0.014953259 0.45500001 155 1 15
0.025196075 -0.014953259 0.45500001 155 1 15
0.025701832 -0.014953259 0.45500001 155 1 13
0.026207589 -0.014953259 0.45500001 157 3 15
0.026772056 -0.014986125 0.45600003 157 3 15
0.027278924 -0.014986125 0.45600003 157 3 15
0.027785791 -0.014986125 0.45600003 157 3 15
0.028354704 -0.015018988 0.45700002 157 3 15
0.028862685 -0.015018988 0.45700002 158 4 16
0.029370664 -0.015018988 0.45700002 160 6 18
0.029944025 -0.015051853 0.45800003 157 6 17
0.030453116 -0.015051853 0.45800003 156 5 16
0.031029809 -0.015084717 0.45900002 155 7 19
0.03154001 -0.015084717 0.45900002 155 7 19
0.032050215 -0.015084717 0.45900002 154 7 19
0.032631353 -0.015117581 0.46000001 153 6 18
0.033142667 -0.015117581 0.46000001 151 7 18
0.033727143 -0.015150446 0.46100003 152 8 19
0.034239568 -0.015150446 0.46100003 152 9 22
0.034751993 -0.015150446 0.46100003 152 9 22
0.035340913 -0.01518331 0.46200001 150 10 22
0.03593206 -0.015216175 0.46300003 150 10 22
0.036446709 -0.015216175 0.46300003 151 11 23
0.037041187 -0.015249039 0.46400002 151 11 23
0.037556946 -0.015249039 0.46400002 146 13 25
0.038154762 -0.015281904 0.46500003 146 13 25
0.038754798 -0.015314767 0.46600002 154 26 36
0.039272781 -0.015314767 0.46600002 158 30 40
0.039876152 -0.015347632 0.46700001 144 23 31
0.040395245 -0.015347632 0.46700001 142 21 29
0.041001953 -0.015380496 0.46800002 140 24 30
0.041610882 -0.01541336 0.46900001 141 25 31
0.042132199 -0.01541336 0.46900001 138 33 40
0.042744465 -0.015446225 0.47000003 140 35 42
0.043266896 -0.015446225 0.47000003 133 44 50
0.043882493 -0.015479089 0.47100002 136 47 53
0.044500317 -0.015511953 0.47200003 122 55 58
0.045024969 -0.015511953 0.47200003 128 61 64
-0.020244179 -0.015146063 0.47700003 81 33 41
-0.019672638 -0.015114309 0.47600001 93 31 39
-0.019103322 -0.015082557 0.47500002 88 26 34
-0.018575335 -0.015082557 0.47500002 96 22 27
-0.018009353 -0.015050805 0.47400004 95 21 26
-0.017482478 -0.015050805 0.47400004 102 17 24
-0.016919829 -0.015019052 0.47300002 100 15 22
-0.016359406 -0.014987299 0.47200003 108 11 20
-0.015834752 -0.014987299 0.47200003 107 10 19
-0.015277662 -0.014955546 0.47100002 111 9 17
-0.014754122 -0.014955546 0.47100002 111 9 17
-0.014200367 -0.014923793 0.47000003 119 7 16
-0.013648835 -0.01489204 0.46900001 119 7 16
-0.013071536 -0.014828535 0.46700001 124 5 14
-0.012552442 -0.014828535 0.46700001 127 4 12
-0.01200758 -0.014796782 0.46600002 129 6 14
-0.01146494 -0.01476503 0.46500003 131 6 15
-0.010948068 -0.01476503 0.46500003 132 7 16
-0.010408764 -0.014733276 0.46400002 136 6 12
-0.0098716822 -0.014701525 0.46300003 135 5 11
-0.0093570342 -0.014701525 0.46300003 136 4 11
-0.0088423854 -0.014701525 0.46300003 137 5 12
-0.0083097499 -0.014669771 0.46200001 139 5 12
-0.0077962116 -0.014669771 0.46200001 139 5 12
-0.0072826748 -0.014669771 0.46200001 139 5 12
-0.0067544859 -0.014638019 0.46100003 139 5 12
-0.0062420606 -0.014638019 0.46100003 140 4 12
-0.0057296348 -0.014638019 0.46100003 141 5 13
-0.0052058916 -0.014606265 0.46000001 142 6 12
-0.0046945778 -0.014606265 0.46000001 142 6 12
-0.0041832635 -0.014606265 0.46000001 141 5 11
-0.0036639667 -0.014574513 0.45900002 140 4 10
-0.0031537644 -0.014574513 0.45900002 140 4 10
-0.0026435619 -0.014574513 0.45900002 142 4 8
-0.0021333592 -0.014574513 0.45900002 144 6 10
-0.0016196204 -0.01454276 0.45800003 147 4 10
-0.0011105294 -0.01454276 0.45800003 150 7 13
-0.00060143834 -0.01454276 0.45800003 151 4 11
-9.2347327e-05 -0.01454276 0.45800003 151 4 11
0.00041583378 -0.014511008 0.45700002 153 3 9
0.00092381326 -0.014511008 0.45700002 155 5 11
0.0014317927 -0.014511008 0.45700002 156 6 12
0.0019397723 -0.014511008 0.45700002 157 7 13
0.0024477516 -0.014511008 0.45700002 158 8 14
0.0029557312 -0.014511008 0.45700002 158 8 14
0.0034637104 -0.014511008 0.45700002 161 8 17
0.0039716898 -0.014511008 0.45700002 161 8 17
0.0044698673 -0.014479255 0.45600003 162 8 20
0.0049767355 -0.014479255 0.45600003 162 8 20
0.0054836031 -0.014479255 0.45600003 164 9 28
0.0059904708 -0.014479255 0.45600003 164 9 28
0.0064973389 -0.014479255 0.45600003 161 6 25
0.007004207 -0.014479255 0.45600003 162 5 25
0.0075110747 -0.014479255 0.45600003 163 6 26
0.0080179423 -0.014479255 0.45600003 165 8 28
0.00852481 -0.014479255 0.45600003 166 9 29
0.0090316785 -0.014479255 0.45600003 166 9 29
0.0095176287 -0.014447502 0.45500001 167 10 30
0.010023385 -0.014447502 0.45500001 167 15 33
0.010529141 -0.014447502 0.45500001 173 21 39
0.011034898 -0.014447502 0.45500001 172 23 42
0.011540653 -0.014447502 0.45500001 172 23 42
0.01204641 -0.014447502 0.45500001 171 22 41
0.012552167 -0.014447502 0.45500001 174 25 44
0.013029225 -0.014415749 0.45400003 174 26 45
0.01356368 -0.014447502 0.45500001 174 26 45
0.014038514 -0.014415749 0.45400003 171 28 45
0.014543159 -0.014415749 0.45400003 171 28 45
0.015047804 -0.014415749 0.45400003 170 30 46
0.015552448 -0.014415749 0.45400003 170 30 46
0.016057093 -0.014415749 0.45400003 166 29 44
0.016561737 -0.014415749 0.45400003 163 26 41
0.017066382 -0.014415749 0.45400003 163 26 41
0.017571028 -0.014415749 0.45400003 163 26 41
0.018075673 -0.014415749 0.45400003 163 23 39
0.018580317 -0.014415749 0.45400003 161 21 37
0.019084962 -0.014415749 0.45400003 158 14 34
0.019589607 -0.014415749 0.45400003 161 12 31
0.020094251 -0.014415749 0.45400003 160 11 30
0.020598896 -0.014415749 0.45400003 160 8 26
0.021103542 -0.014415749 0.45400003 159 7 25
0.021608187 -0.014415749 0.45400003 159 4 21
0.022112831 -0.014415749 0.45400003 158 3 20
0.022617476 -0.014415749 0.45400003 157 3 17
0.023122121 -0.014415749 0.45400003 157 3 17
0.023678806 -0.014447502 0.45500001 157 3 17
0.024184562 -0.014447502 0.45500001 157 3 17
0.024690319 -0.014447502 0.45500001 155 1 13
0.025196075 -0.014447502 0.45500001 155 1 13
0.025701832 -0.014447502 0.45500001 157 3 15
0.026207589 -0.014447502 0.45500001 157 3 15
0.026713345 -0.014447502 0.45500001 157 3 15
0.027278924 -0.014479255 0.45600003 157 3 15
0.027785791 -0.014479255 0.45600003 157 3 15
0.028354704 -0.014511008 0.45700002 157 3 15
0.028862685 -0.014511008 0.45700002 158 4 16
0.029370664 -0.014511008 0.45700002 159 5 17
0.029944025 -0.01454276 0.45800003 157 6 17
0.030453116 -0.01454276 0.45800003 157 6 17
0.031029809 -0.014574513 0.45900002 155 7 19
0.03154001 -0.014574513 0.45900002 154 6 18
0.032050215 -0.014574513 0.45900002 153 6 18
0.032631353 -0.014606265 0.46000001 150 3 15
0.033142667 -0.014606265 0.46000001 148 4 15
0.033727143 -0.014638019 0.46100003 150 6 17
0.034239568 -0.014638019 0.46100003 149 6 19
0.034751993 -0.014638019 0.46100003 149 6 19
0.035340913 -0.014669771 0.46200001 150 7 20
0.035854451 -0.014669771 0.46200001 151 8 21
0.036446709 -0.014701525 0.46300003 150 10 24
0.037041187 -0.014733276 0.46400002 151 11 25
0.037556946 -0.014733276 0.46400002 149 14 26
0.038154762 -0.01476503 0.46500003 151 16 28
0.038754798 -0.014796782 0.46600002 149 21 31
0.039272781 -0.014796782 0.46600002 150 22 32
0.039876152 -0.014828535 0.46700001 142 23 30
0.040481746 -0.014860288 0.46800002 140 21 28
0.041001953 -0.014860288 0.46800002 138 22 30
0.041610882 -0.01489204 0.46900001 140 24 32
0.042222034 -0.014923793 0.47000003 137 32 41
0.042744465 -0.014923793 0.47000003 139 34 43
0.043358952 -0.014955546 0.47100002 131 45 52
0.043882493 -0.014955546 0.47100002 134 48 55
0.044406034 -0.014955546 0.47100002 126 58 64
-0.020286618 -0.014646494 0.47800002 80 32 40
-0.019672638 -0.014585212 0.47600001 96 34 42
-0.019103322 -0.01455457 0.47500002 86 24 32
-0.018536231 -0.01452393 0.47400004 95 20 28
-0.018009353 -0.01452393 0.47400004 95 20 28
-0.017482478 -0.01452393 0.47400004 100 15 22
-0.016919829 -0.014493288 0.47300002 100 15 22
-0.016394064 -0.014493288 0.47300002 105 11 19
-0.015834752 -0.014462647 0.47200003 104 10 18
-0.015277662 -0.014432006 0.47100002 110 8 16
-0.014754122 -0.014432006 0.47100002 111 9 17
-0.014200367 -0.014401365 0.47000003 116 7 13
-0.013648835 -0.014370724 0.46900001 117 8 14
-0.013099527 -0.014340082 0.46800002 126 10 18
